ncols        384
nrows        51
xllcorner    138
yllcorner    -22.4999999999
cellsize     0.041666666667
NODATA_value -9999
213 215 218 221 228 229 229 232 237 245 252 250 246 250 263 283 296 283 297 321 336 311 319 323 329 337 341 355 378 372 380 394 407 425 369 365 361 394 377 329 329 335 265 284 354 356 316 289 252 241 221 225 213 200 193 180 170 166 163 162 156 155 155 153 153 151 150 145 138 132 126 119 111 105 106 100 100 100 100 101 105 112 117 108 107 109 107 108 110 114 120 129 130 131 133 129 130 132 133 134 136 137 139 143 148 154 162 171 177 183 193 202 200 206 211 215 219 221 221 227 232 237 242 239 246 255 268 272 274 291 305 293 309 317 320 320 327 332 346 353 384 413 426 435 451 479 475 520 551 600 626 631 590 584 572 621 640 633 651 634 618 604 657 699 704 657 666 638 698 660 592 547 496 523 478 476 454 432 414 404 393 382 356 346 336 328 320 312 304 294 300 314 315 302 316 316 316 322 340 371 361 351 399 367 326 293 328 343 318 298 245 232 200 193 179 176 207 233 309 270 388 381 328 143 79 95 123 99 126 174 134 172 168 170 238 242 325 346 327 261 252 204 179 154 168 210 190 100 113 157 66 37 22 14 16 17 75 151 65 95 108 -9999 -9999 -9999 85 -9999 -9999 -9999 -9999 -9999 -9999 -9999 -9999 -9999 -9999 -9999 -9999 -9999 -9999 -9999 -9999 -9999 -9999 -9999 -9999 -9999 -9999 -9999 -9999 -9999 -9999 -9999 -9999 -9999 -9999 -9999 -9999 -9999 -9999 -9999 -9999 -9999 -9999 -9999 -9999 -9999 -9999 -9999 -9999 -9999 -9999 -9999 -9999 -9999 -9999 -9999 -9999 -9999 -9999 -9999 -9999 -9999 -9999 -9999 -9999 -9999 -9999 -9999 -9999 -9999 -9999 -9999 -9999 -9999 -9999 -9999 -9999 -9999 -9999 -9999 -9999 -9999 -9999 -9999 -9999 -9999 -9999 -9999 -9999 -9999 -9999 -9999 -9999 -9999 -9999 -9999 -9999 -9999 -9999 -9999 -9999 -9999 -9999 -9999 -9999 -9999 -9999 -9999 -9999 -9999 -9999 -9999 -9999 -9999 -9999 -9999 -9999 -9999 -9999 -9999 -9999 -9999 -9999 -9999
213 216 217 220 226 235 235 235 236 243 246 246 245 250 258 269 282 298 293 309 319 313 315 319 340 335 340 355 360 374 387 408 421 431 383 379 417 384 367 333 377 357 271 298 356 416 383 304 265 249 244 228 219 214 197 180 175 174 169 167 160 160 158 158 158 159 153 146 142 137 132 122 112 109 109 103 102 102 103 104 103 105 113 111 109 110 110 110 112 115 119 127 135 133 138 133 131 133 135 136 138 139 141 144 147 152 159 165 171 176 185 195 199 201 206 210 213 214 217 219 228 233 223 231 240 246 252 264 273 285 288 286 297 310 305 307 315 325 328 337 367 394 408 417 436 460 425 435 503 521 519 486 475 514 540 587 609 608 614 578 598 631 689 714 748 734 672 623 599 624 686 645 520 481 454 439 430 416 418 395 382 377 367 373 360 335 320 310 302 296 290 285 283 290 295 296 298 296 304 326 322 342 359 321 301 294 287 292 290 271 263 234 207 267 200 178 211 225 295 257 361 422 338 102 88 85 168 110 98 120 107 124 128 157 197 288 315 404 383 292 302 277 296 189 199 216 268 119 133 259 82 42 26 12 6 7 35 195 109 24 110 -9999 -9999 -9999 63 55 35 -9999 -9999 -9999 -9999 -9999 -9999 -9999 -9999 -9999 -9999 -9999 -9999 -9999 -9999 -9999 -9999 -9999 -9999 -9999 -9999 -9999 -9999 -9999 -9999 -9999 -9999 -9999 -9999 -9999 -9999 -9999 -9999 -9999 -9999 -9999 -9999 -9999 -9999 -9999 -9999 -9999 -9999 -9999 -9999 -9999 -9999 -9999 -9999 -9999 -9999 -9999 -9999 -9999 -9999 -9999 -9999 -9999 -9999 -9999 -9999 -9999 -9999 -9999 -9999 -9999 -9999 -9999 -9999 -9999 -9999 -9999 -9999 -9999 -9999 -9999 -9999 -9999 -9999 -9999 -9999 -9999 -9999 -9999 -9999 -9999 -9999 -9999 -9999 -9999 -9999 -9999 -9999 -9999 -9999 -9999 -9999 -9999 -9999 -9999 -9999 -9999 -9999 -9999 -9999 -9999 -9999 -9999 -9999 -9999 -9999 -9999 -9999 -9999 -9999 -9999 -9999 -9999
210 213 217 226 231 232 235 242 240 246 247 245 245 259 279 282 293 307 310 302 304 312 315 314 325 328 365 382 359 369 382 391 416 437 402 404 428 411 384 366 385 302 283 326 396 374 343 287 253 262 341 259 241 239 201 189 181 177 175 169 166 165 163 164 162 157 152 147 141 135 128 120 116 112 110 110 109 105 105 106 106 107 106 109 109 112 113 112 114 117 122 127 137 136 139 139 132 135 137 138 139 141 144 146 150 152 158 162 167 172 179 186 194 200 204 210 213 208 210 222 220 217 217 225 230 238 251 257 266 272 274 278 292 293 293 295 309 339 357 357 379 395 392 401 392 431 423 480 487 456 449 441 462 464 499 558 576 581 593 583 575 600 643 692 707 699 618 601 573 589 641 647 597 530 478 464 436 431 402 388 381 372 362 360 353 341 324 315 307 300 302 298 276 275 279 283 280 278 284 296 320 315 291 274 279 272 261 271 291 270 246 248 255 304 236 168 192 221 234 252 332 385 299 192 164 100 110 110 94 91 94 108 121 139 176 263 270 340 457 409 365 381 366 333 197 270 358 248 124 303 121 43 29 15 6 5 5 34 76 47 158 70 -9999 -9999 -9999 64 100 55 -9999 -9999 -9999 -9999 -9999 -9999 -9999 -9999 -9999 -9999 -9999 -9999 -9999 -9999 -9999 -9999 -9999 -9999 -9999 -9999 -9999 -9999 -9999 -9999 -9999 -9999 -9999 -9999 -9999 -9999 -9999 -9999 -9999 -9999 -9999 -9999 -9999 -9999 -9999 -9999 -9999 -9999 -9999 -9999 -9999 -9999 -9999 -9999 -9999 -9999 -9999 -9999 -9999 -9999 -9999 -9999 -9999 -9999 -9999 -9999 -9999 -9999 -9999 -9999 -9999 -9999 -9999 -9999 -9999 -9999 -9999 -9999 -9999 -9999 -9999 -9999 -9999 -9999 -9999 -9999 -9999 -9999 -9999 -9999 -9999 -9999 -9999 -9999 -9999 -9999 -9999 -9999 -9999 -9999 -9999 -9999 -9999 -9999 -9999 -9999 -9999 -9999 -9999 -9999 -9999 -9999 -9999 -9999 -9999 -9999 -9999 -9999 -9999 -9999 -9999 -9999
212 217 220 221 225 232 234 241 245 246 250 247 248 289 301 281 315 313 302 291 292 298 303 310 317 332 364 377 370 371 376 394 404 443 402 372 378 377 367 388 346 294 297 367 410 375 326 291 276 313 365 246 226 217 198 191 189 183 179 176 176 170 171 168 162 157 153 149 142 134 127 122 118 115 115 114 110 107 107 108 109 109 109 107 111 114 115 114 116 119 123 128 138 141 141 141 135 135 138 139 141 144 146 148 150 152 156 159 163 168 174 178 183 192 203 208 206 205 207 210 201 206 211 218 225 235 240 252 255 264 262 270 275 281 290 305 344 357 363 375 380 382 372 306 338 367 450 509 474 426 417 432 440 418 438 500 557 555 557 560 554 578 602 639 665 675 597 543 551 556 605 593 550 550 494 476 429 409 398 381 373 371 361 351 342 335 326 318 310 301 293 290 277 270 269 270 268 264 279 283 299 298 326 272 257 248 237 254 262 254 269 283 308 333 231 171 189 193 218 162 290 247 207 217 238 158 211 148 134 100 108 112 121 132 156 212 255 379 440 451 372 435 425 507 289 301 495 338 130 274 161 55 37 21 8 5 6 -9999 -9999 4 65 192 128 -9999 3 51 -9999 -9999 -9999 -9999 -9999 -9999 -9999 -9999 -9999 -9999 -9999 -9999 -9999 -9999 -9999 -9999 -9999 -9999 -9999 -9999 -9999 -9999 -9999 -9999 -9999 -9999 -9999 -9999 -9999 -9999 -9999 -9999 -9999 -9999 -9999 -9999 -9999 -9999 -9999 -9999 -9999 -9999 -9999 -9999 -9999 -9999 -9999 -9999 -9999 -9999 -9999 -9999 -9999 -9999 -9999 -9999 -9999 -9999 -9999 -9999 -9999 -9999 -9999 -9999 -9999 -9999 -9999 -9999 -9999 -9999 -9999 -9999 -9999 -9999 -9999 -9999 -9999 -9999 -9999 -9999 -9999 -9999 -9999 -9999 -9999 -9999 -9999 -9999 -9999 -9999 -9999 -9999 -9999 -9999 -9999 -9999 -9999 -9999 -9999 -9999 -9999 -9999 -9999 -9999 -9999 -9999 -9999 -9999 -9999 -9999 -9999 -9999 -9999 -9999 -9999 -9999 -9999 -9999
213 214 212 218 219 223 226 232 238 244 248 249 249 263 259 263 272 276 278 284 289 303 311 312 321 339 363 385 383 384 393 399 391 411 430 367 344 342 323 360 320 300 298 336 384 394 383 352 315 270 249 255 258 213 202 202 202 192 186 185 179 176 173 166 160 155 147 142 135 131 130 125 123 126 118 116 115 110 108 109 111 112 112 109 111 117 120 116 117 121 125 130 138 145 145 144 139 137 139 139 141 144 146 149 151 154 157 159 161 165 168 173 178 187 198 199 196 202 199 196 208 223 230 235 237 239 245 262 249 263 256 268 271 289 307 309 343 351 360 338 307 336 313 333 368 373 434 470 437 400 410 424 426 397 385 483 500 529 537 534 537 546 558 585 612 612 590 525 539 539 575 583 537 499 470 445 435 416 394 380 368 359 356 344 338 331 326 319 310 301 292 285 277 269 263 266 257 256 270 270 285 285 338 291 279 248 233 256 224 251 268 296 325 310 226 176 183 193 159 139 205 159 159 248 252 200 195 164 129 131 102 111 129 157 168 192 190 264 388 450 387 447 500 490 467 440 484 313 169 160 114 62 56 35 18 9 7 -9999 -9999 -9999 6 -9999 -9999 -9999 -9999 -9999 46 -9999 -9999 -9999 -9999 -9999 -9999 -9999 -9999 -9999 -9999 -9999 -9999 -9999 -9999 -9999 -9999 -9999 -9999 -9999 -9999 -9999 -9999 -9999 -9999 -9999 -9999 -9999 -9999 -9999 -9999 -9999 -9999 -9999 -9999 -9999 -9999 -9999 -9999 -9999 -9999 -9999 -9999 -9999 -9999 -9999 -9999 -9999 -9999 -9999 -9999 -9999 -9999 -9999 -9999 -9999 -9999 -9999 -9999 -9999 -9999 -9999 -9999 -9999 -9999 -9999 -9999 -9999 -9999 -9999 -9999 -9999 -9999 -9999 -9999 -9999 -9999 -9999 -9999 -9999 -9999 -9999 -9999 -9999 -9999 -9999 -9999 -9999 -9999 -9999 -9999 -9999 -9999 -9999 -9999 -9999 -9999 -9999 -9999 -9999 -9999 -9999 -9999 -9999 -9999 -9999 -9999 -9999 -9999 -9999 -9999 -9999 -9999 -9999 -9999 -9999 -9999 -9999
210 208 210 216 216 220 224 232 237 245 243 244 246 251 256 261 266 270 277 280 284 304 324 323 327 341 357 378 371 368 381 386 387 402 386 372 333 354 361 315 311 302 305 349 387 411 394 361 295 265 290 292 242 221 217 220 208 204 193 183 182 186 178 176 172 165 157 152 141 137 134 131 136 126 122 121 121 114 113 112 115 114 115 113 111 120 121 118 119 120 124 127 132 140 145 149 145 141 143 140 142 144 147 149 152 154 157 159 163 165 168 172 178 184 191 186 188 192 191 192 196 209 226 225 232 231 247 243 247 249 259 262 273 289 294 321 331 332 316 286 282 299 313 331 302 324 397 419 389 379 398 413 405 373 397 486 485 516 527 491 508 523 531 548 551 560 574 517 540 557 581 546 511 484 469 458 480 437 398 390 388 358 348 342 332 325 318 311 307 299 290 282 276 267 260 256 255 246 252 262 267 261 278 268 250 232 226 227 214 250 248 278 325 271 224 177 160 165 177 185 139 134 186 339 370 258 251 179 143 185 133 120 132 142 151 164 176 229 314 424 401 308 389 377 450 502 548 511 346 228 72 83 51 44 28 47 16 -9999 -9999 -9999 11 7 -9999 -9999 -9999 -9999 11 -9999 -9999 -9999 -9999 -9999 -9999 -9999 -9999 -9999 -9999 -9999 -9999 -9999 -9999 -9999 -9999 -9999 -9999 -9999 -9999 -9999 -9999 -9999 -9999 -9999 -9999 -9999 -9999 -9999 -9999 -9999 -9999 -9999 -9999 -9999 -9999 -9999 -9999 -9999 -9999 -9999 -9999 -9999 -9999 -9999 -9999 -9999 -9999 -9999 -9999 -9999 -9999 -9999 -9999 -9999 -9999 -9999 -9999 -9999 -9999 -9999 -9999 -9999 -9999 -9999 -9999 -9999 -9999 -9999 -9999 -9999 -9999 -9999 -9999 -9999 -9999 -9999 -9999 -9999 -9999 -9999 -9999 -9999 -9999 -9999 -9999 -9999 -9999 -9999 -9999 -9999 -9999 -9999 -9999 -9999 -9999 -9999 -9999 -9999 -9999 -9999 -9999 -9999 -9999 -9999 -9999 -9999 -9999 -9999 -9999 -9999 -9999 -9999 -9999 -9999 -9999 -9999
207 209 210 213 215 219 224 230 233 236 243 243 245 250 253 258 262 269 278 276 283 290 305 311 327 334 344 375 352 355 364 382 392 385 366 353 345 417 367 347 334 330 323 387 411 412 354 321 295 298 326 312 242 240 245 233 222 217 199 189 193 194 191 197 196 176 164 154 147 142 141 138 140 129 127 127 127 119 118 119 117 116 117 119 114 117 122 120 122 122 124 130 132 137 144 152 148 144 146 142 142 145 147 151 152 154 157 160 163 166 168 171 174 177 181 182 185 187 192 197 199 201 206 209 220 225 232 233 243 249 254 261 267 278 315 316 304 277 300 261 265 286 285 301 295 337 377 378 342 359 391 381 365 381 392 407 474 471 476 458 493 493 498 501 517 516 534 524 511 537 568 533 508 473 450 435 433 423 428 440 408 369 346 337 329 321 313 303 301 294 288 280 273 266 260 252 247 245 244 254 247 253 254 264 248 221 211 205 207 222 247 300 309 250 177 160 183 160 163 178 223 156 238 348 410 398 285 212 175 174 173 115 140 163 172 166 187 234 350 438 350 252 298 344 437 461 475 560 509 120 96 85 68 41 35 78 57 10 -9999 -9999 -9999 -9999 -9999 -9999 -9999 30 19 6 -9999 -9999 -9999 -9999 -9999 -9999 -9999 -9999 -9999 -9999 -9999 -9999 -9999 -9999 -9999 -9999 -9999 -9999 -9999 -9999 -9999 -9999 -9999 -9999 -9999 -9999 -9999 -9999 -9999 -9999 -9999 -9999 -9999 -9999 -9999 -9999 -9999 -9999 -9999 -9999 -9999 -9999 -9999 -9999 -9999 -9999 -9999 -9999 -9999 -9999 -9999 -9999 -9999 -9999 -9999 -9999 -9999 -9999 -9999 -9999 -9999 -9999 -9999 -9999 -9999 -9999 -9999 -9999 -9999 -9999 -9999 -9999 -9999 -9999 -9999 -9999 -9999 -9999 -9999 -9999 -9999 -9999 -9999 -9999 -9999 -9999 -9999 -9999 -9999 -9999 -9999 -9999 -9999 -9999 -9999 -9999 -9999 -9999 -9999 -9999 -9999 -9999 -9999 -9999 -9999 -9999 -9999 -9999 -9999 -9999 -9999 -9999 -9999 -9999 -9999 -9999
207 209 210 214 218 221 221 228 232 237 241 242 242 246 252 255 258 269 271 277 284 291 301 305 313 325 332 342 346 362 383 381 396 383 366 362 371 410 386 339 343 351 344 357 411 457 385 378 339 349 329 288 254 303 267 253 234 217 206 199 196 213 213 207 192 179 173 162 152 148 148 145 142 134 133 133 133 128 125 125 120 119 118 120 120 118 125 125 124 128 125 128 132 140 143 152 149 147 149 145 143 145 147 150 152 155 157 160 162 165 167 170 173 177 180 182 185 191 197 206 203 200 203 204 215 220 228 235 239 236 244 248 256 294 290 278 269 261 263 261 268 272 308 344 348 329 343 342 338 350 376 349 348 355 371 396 455 434 447 474 474 467 462 467 476 485 491 513 494 530 526 554 540 494 478 460 460 409 401 426 428 384 343 332 323 319 310 302 294 287 281 275 269 263 255 261 279 247 239 243 241 247 243 249 247 218 202 192 204 213 249 278 237 200 164 159 176 186 249 238 263 215 262 372 463 377 246 196 177 221 234 135 122 149 157 160 180 210 286 306 286 251 304 275 396 387 505 354 414 415 446 209 69 69 64 49 13 13 -9999 -9999 -9999 -9999 -9999 -9999 -9999 -9999 -9999 45 48 -9999 -9999 -9999 -9999 -9999 -9999 -9999 -9999 -9999 -9999 -9999 -9999 -9999 -9999 -9999 -9999 -9999 -9999 -9999 -9999 -9999 -9999 -9999 -9999 -9999 -9999 -9999 -9999 -9999 -9999 -9999 -9999 -9999 -9999 -9999 -9999 -9999 -9999 -9999 -9999 -9999 -9999 -9999 -9999 -9999 -9999 -9999 -9999 -9999 -9999 -9999 -9999 -9999 -9999 -9999 -9999 -9999 -9999 -9999 -9999 -9999 -9999 -9999 -9999 -9999 -9999 -9999 -9999 -9999 -9999 -9999 -9999 -9999 -9999 -9999 -9999 -9999 -9999 -9999 -9999 -9999 -9999 -9999 -9999 -9999 -9999 -9999 -9999 -9999 -9999 -9999 -9999 -9999 -9999 -9999 -9999 -9999 -9999 -9999 -9999 -9999 -9999 -9999 -9999 -9999 -9999 -9999 -9999 -9999 -9999 -9999 -9999 -9999 -9999 -9999
214 218 216 218 224 224 225 226 227 229 233 237 242 245 248 252 258 268 270 277 284 292 299 306 315 322 331 351 357 378 391 393 394 401 393 381 376 425 406 341 362 363 358 383 413 449 447 405 447 384 291 266 273 300 292 265 249 228 214 198 207 228 226 211 199 189 176 165 160 155 153 148 142 144 141 140 141 137 130 127 125 121 121 121 127 119 123 129 131 132 130 128 133 139 146 153 153 151 153 148 144 146 147 149 152 155 157 159 161 163 165 168 172 175 178 180 187 191 196 206 215 212 205 208 211 214 218 220 219 243 260 251 279 273 255 251 253 253 260 264 276 276 278 291 331 337 338 319 309 318 333 338 339 357 396 396 436 465 468 466 466 462 454 449 456 470 482 494 483 493 500 523 542 516 476 434 446 407 387 389 408 365 343 333 330 314 308 301 294 286 279 272 266 257 251 246 245 240 231 238 236 232 236 242 223 216 230 202 207 226 258 249 195 173 167 159 189 240 274 268 306 285 306 362 453 433 322 296 237 235 254 190 128 130 135 141 154 159 169 196 179 271 356 253 296 332 429 328 339 540 678 221 111 103 70 71 18 33 13 -9999 -9999 -9999 -9999 -9999 -9999 -9999 -9999 4 -9999 -9999 -9999 -9999 -9999 -9999 -9999 11 -9999 -9999 -9999 -9999 -9999 -9999 -9999 -9999 -9999 -9999 -9999 -9999 -9999 -9999 -9999 -9999 -9999 -9999 -9999 -9999 -9999 -9999 -9999 -9999 -9999 -9999 -9999 -9999 -9999 -9999 -9999 -9999 -9999 -9999 -9999 -9999 -9999 -9999 -9999 -9999 -9999 -9999 -9999 -9999 -9999 -9999 -9999 -9999 -9999 -9999 -9999 -9999 -9999 -9999 -9999 -9999 -9999 -9999 -9999 -9999 -9999 -9999 -9999 -9999 -9999 -9999 -9999 -9999 -9999 -9999 -9999 -9999 -9999 -9999 -9999 -9999 -9999 -9999 -9999 -9999 -9999 -9999 -9999 -9999 -9999 -9999 -9999 -9999 -9999 -9999 -9999 -9999 -9999 -9999 -9999 -9999 -9999 -9999 -9999 -9999 -9999 -9999 -9999 -9999 -9999 -9999 -9999 -9999
216 226 224 219 220 218 220 223 224 224 229 234 239 241 244 250 255 262 269 275 282 289 298 310 311 326 338 343 367 392 401 396 407 417 409 382 381 448 415 362 412 387 377 384 429 448 447 381 457 384 274 286 315 335 338 317 278 234 227 210 203 218 248 235 212 197 184 177 169 162 159 150 147 157 151 147 150 140 136 132 131 124 124 123 129 125 120 124 131 135 137 135 133 141 148 149 154 157 158 151 146 145 147 149 150 154 156 159 161 162 165 167 170 172 175 177 182 190 196 204 213 220 213 210 215 212 214 217 220 224 258 274 284 245 244 242 246 262 270 275 290 283 285 291 294 294 300 307 315 325 328 330 364 393 402 394 455 458 457 457 456 454 449 443 451 463 475 481 473 475 481 484 510 490 454 420 404 430 415 384 373 382 385 357 329 311 303 297 291 285 278 270 263 257 249 243 236 233 227 230 229 227 236 224 208 209 201 206 185 185 198 192 177 165 161 169 201 219 233 265 301 308 388 413 376 405 394 415 365 372 280 159 153 133 130 136 143 149 158 169 183 179 236 257 256 346 452 304 485 469 612 446 267 187 86 134 74 71 33 14 -9999 -9999 -9999 -9999 -9999 -9999 -9999 7 -9999 -9999 139 79 -9999 68 -9999 -9999 -9999 -9999 43 -9999 -9999 -9999 -9999 -9999 -9999 -9999 -9999 -9999 -9999 -9999 -9999 -9999 -9999 -9999 -9999 -9999 -9999 -9999 -9999 -9999 -9999 -9999 -9999 -9999 -9999 -9999 -9999 -9999 -9999 -9999 -9999 -9999 -9999 -9999 -9999 -9999 -9999 -9999 -9999 -9999 -9999 -9999 -9999 -9999 -9999 -9999 -9999 -9999 -9999 -9999 -9999 -9999 -9999 -9999 -9999 -9999 -9999 -9999 -9999 -9999 -9999 -9999 -9999 -9999 -9999 -9999 -9999 -9999 -9999 -9999 -9999 -9999 -9999 -9999 -9999 -9999 -9999 -9999 -9999 -9999 -9999 -9999 -9999 -9999 -9999 -9999 -9999 -9999 -9999 -9999 -9999 -9999 -9999 -9999 -9999 -9999 -9999 -9999 -9999 -9999 -9999 -9999 -9999 -9999
218 228 223 221 220 219 225 224 221 220 224 229 233 237 242 247 253 260 266 274 279 286 292 306 314 324 336 342 353 369 379 394 417 429 410 385 397 448 443 396 430 402 384 402 464 508 440 356 372 344 307 357 380 355 324 331 298 248 240 221 211 237 254 255 225 204 192 179 174 168 168 157 154 163 157 156 152 146 142 136 133 127 129 126 131 132 125 123 129 129 133 139 135 139 144 147 152 157 162 157 151 148 148 149 151 153 154 158 163 165 167 171 174 178 176 176 181 187 193 198 204 209 216 212 224 233 225 225 229 231 228 243 237 236 240 242 242 246 257 273 276 272 287 302 306 307 303 307 314 320 340 382 362 369 374 430 451 449 446 448 447 445 442 437 443 453 463 467 463 460 459 462 477 463 430 411 410 422 465 449 437 441 421 397 354 312 299 293 288 280 275 269 261 255 248 240 232 227 224 221 224 224 234 223 216 208 191 177 208 183 172 170 163 162 169 168 190 214 277 294 305 344 357 372 360 368 403 465 377 327 255 221 183 155 144 149 143 150 163 181 211 211 186 230 265 265 373 311 531 558 638 703 507 328 124 99 69 57 38 13 10 3 -9999 -9999 -9999 -9999 -9999 -9999 -9999 -9999 50 26 -9999 -9999 -9999 -9999 -9999 -9999 -9999 -9999 -9999 -9999 -9999 -9999 -9999 -9999 -9999 -9999 -9999 -9999 -9999 -9999 -9999 -9999 -9999 -9999 -9999 -9999 -9999 -9999 -9999 -9999 -9999 -9999 -9999 -9999 -9999 -9999 -9999 -9999 -9999 -9999 -9999 -9999 -9999 -9999 -9999 -9999 -9999 -9999 -9999 -9999 -9999 -9999 -9999 -9999 -9999 -9999 -9999 -9999 -9999 -9999 -9999 -9999 -9999 -9999 -9999 -9999 -9999 -9999 -9999 -9999 -9999 -9999 -9999 -9999 -9999 -9999 -9999 -9999 -9999 -9999 -9999 -9999 -9999 -9999 -9999 -9999 -9999 -9999 -9999 -9999 -9999 -9999 -9999 -9999 -9999 -9999 -9999 -9999 -9999 -9999 -9999 -9999 -9999 -9999 -9999 -9999 -9999 -9999 -9999 -9999 -9999 -9999
217 221 225 226 218 214 214 216 219 218 223 227 229 234 238 245 251 256 261 267 274 283 292 302 310 323 338 347 360 370 382 396 416 439 413 400 392 410 437 439 447 405 392 422 469 419 397 357 331 316 325 372 370 360 304 282 288 271 244 223 215 228 240 261 224 206 194 188 179 178 168 164 166 165 167 163 157 152 147 142 135 131 131 129 132 136 131 127 135 137 133 142 141 140 142 145 151 156 163 163 155 153 149 149 150 151 153 156 160 165 170 174 178 182 185 177 181 191 196 199 200 206 215 219 218 226 233 238 243 239 232 233 234 235 242 251 255 247 249 259 268 280 286 288 299 313 321 317 329 326 332 341 355 371 383 408 437 441 438 440 438 436 433 429 436 444 451 453 450 449 445 448 447 443 417 426 433 429 451 483 479 460 398 379 340 310 295 287 282 277 270 266 258 252 246 241 235 229 221 223 218 221 231 228 212 196 183 208 237 189 178 187 166 168 183 195 180 187 229 278 310 309 294 353 346 358 411 452 412 374 270 274 204 169 161 167 161 156 172 197 223 304 188 225 304 280 242 358 420 434 455 518 589 720 333 178 85 31 20 12 8 11 14 -9999 -9999 -9999 -9999 -9999 -9999 -9999 -9999 -9999 -9999 -9999 -9999 -9999 -9999 40 152 -9999 -9999 -9999 -9999 -9999 -9999 -9999 -9999 -9999 -9999 -9999 -9999 -9999 -9999 -9999 -9999 -9999 -9999 -9999 -9999 -9999 -9999 -9999 -9999 -9999 -9999 -9999 -9999 -9999 -9999 -9999 -9999 -9999 -9999 -9999 -9999 -9999 -9999 -9999 -9999 -9999 -9999 -9999 -9999 -9999 -9999 -9999 -9999 -9999 -9999 -9999 -9999 -9999 -9999 -9999 -9999 -9999 -9999 -9999 -9999 -9999 -9999 -9999 -9999 -9999 -9999 -9999 -9999 -9999 -9999 -9999 -9999 -9999 -9999 -9999 -9999 -9999 -9999 -9999 -9999 -9999 -9999 -9999 -9999 -9999 -9999 -9999 -9999 -9999 -9999 -9999 -9999 -9999 -9999 -9999 -9999 -9999 -9999 -9999 -9999 -9999 -9999 -9999 -9999 -9999
209 213 219 224 220 218 214 211 212 216 220 223 226 230 236 241 245 250 258 266 274 282 290 298 307 318 327 340 353 373 393 401 413 449 423 416 410 412 447 473 451 429 396 410 471 489 424 392 366 364 348 370 360 323 311 279 269 248 235 227 245 258 244 268 252 225 209 195 187 184 177 175 174 170 174 166 159 153 148 145 137 134 134 132 137 137 135 130 134 143 135 141 145 148 152 147 149 157 162 166 157 153 152 150 151 150 152 155 160 165 170 177 182 186 190 179 181 188 193 196 199 205 211 225 223 225 227 234 243 249 238 241 243 245 241 248 261 258 249 254 266 272 271 284 294 304 313 324 347 341 339 345 383 409 398 406 426 431 431 430 430 427 425 420 424 432 437 439 439 436 432 432 435 417 428 461 467 472 452 436 432 439 402 359 333 312 294 282 277 272 265 259 252 246 241 235 232 227 220 215 214 224 226 226 222 199 184 207 222 196 196 191 165 174 198 210 196 220 219 222 281 261 289 345 338 338 364 386 445 390 380 378 240 195 178 199 175 166 170 251 224 246 207 224 432 523 296 346 383 300 371 374 495 670 494 200 141 51 33 21 12 11 12 19 107 34 -9999 -9999 -9999 -9999 -9999 -9999 -9999 82 112 -9999 -9999 -9999 134 -9999 -9999 -9999 -9999 -9999 -9999 -9999 -9999 -9999 -9999 -9999 -9999 -9999 -9999 -9999 -9999 -9999 -9999 -9999 -9999 -9999 -9999 -9999 -9999 -9999 -9999 -9999 -9999 -9999 -9999 -9999 -9999 -9999 -9999 -9999 -9999 -9999 -9999 -9999 -9999 -9999 -9999 -9999 -9999 -9999 -9999 -9999 -9999 -9999 -9999 -9999 -9999 -9999 -9999 -9999 -9999 -9999 -9999 -9999 -9999 -9999 -9999 -9999 -9999 -9999 -9999 -9999 -9999 -9999 -9999 -9999 -9999 -9999 -9999 -9999 -9999 -9999 -9999 -9999 -9999 -9999 -9999 -9999 -9999 -9999 -9999 -9999 -9999 -9999 -9999 -9999 -9999 -9999 -9999 -9999 -9999 -9999 -9999 -9999 -9999 -9999 -9999 -9999 -9999 -9999
201 208 217 222 223 217 212 209 209 214 217 219 223 228 232 236 242 249 256 263 271 279 286 296 305 313 327 342 347 360 373 396 402 422 420 438 434 416 465 469 486 444 405 440 489 497 462 389 401 370 344 335 318 299 291 306 274 274 264 229 285 299 268 265 295 251 229 204 201 195 192 182 184 177 173 170 164 156 155 147 139 137 136 135 142 140 141 137 135 138 140 140 149 155 157 154 151 153 159 165 158 156 154 155 153 150 152 156 159 166 173 177 184 190 194 182 183 191 198 204 207 210 214 222 230 234 233 231 239 250 246 242 251 254 246 247 257 266 259 252 254 257 267 275 285 295 312 328 380 374 363 363 407 440 429 437 428 420 423 421 421 420 417 413 414 420 424 424 426 426 420 420 428 414 458 497 514 470 429 406 384 412 401 359 325 308 291 277 271 265 259 253 248 240 235 229 225 220 216 214 211 219 220 210 204 206 186 207 225 215 194 187 167 215 221 236 218 256 222 221 238 243 265 292 336 310 328 355 420 420 400 360 243 237 204 221 203 195 182 255 255 230 204 226 321 567 391 375 283 369 525 693 657 710 732 475 281 114 173 56 18 68 45 46 18 29 -9999 -9999 -9999 -9999 -9999 -9999 -9999 31 95 10 -9999 -9999 -9999 -9999 -9999 -9999 -9999 -9999 -9999 -9999 -9999 -9999 -9999 -9999 -9999 -9999 -9999 -9999 -9999 -9999 -9999 -9999 -9999 -9999 -9999 -9999 -9999 -9999 -9999 -9999 -9999 -9999 -9999 -9999 -9999 -9999 -9999 -9999 -9999 -9999 -9999 -9999 -9999 -9999 -9999 -9999 -9999 -9999 -9999 -9999 -9999 -9999 -9999 -9999 -9999 -9999 -9999 -9999 -9999 -9999 -9999 -9999 -9999 -9999 -9999 -9999 -9999 -9999 -9999 -9999 -9999 -9999 -9999 -9999 -9999 -9999 -9999 -9999 -9999 -9999 -9999 -9999 -9999 -9999 -9999 -9999 -9999 -9999 -9999 -9999 -9999 -9999 -9999 -9999 -9999 -9999 -9999 -9999 -9999 -9999 -9999 -9999 -9999 -9999 -9999 -9999 -9999 -9999
196 206 215 224 223 216 212 207 208 211 213 215 220 224 229 234 240 246 252 259 266 272 280 290 299 306 326 341 343 361 364 380 388 393 405 450 451 456 456 452 479 436 416 472 449 469 425 373 355 350 368 333 301 294 277 298 312 302 286 232 275 301 298 306 313 289 244 213 211 207 194 196 190 184 181 172 165 163 157 145 142 141 140 139 139 143 146 142 142 140 144 141 146 152 160 161 158 158 160 161 161 160 159 158 156 153 152 155 159 166 170 174 178 185 192 186 186 192 197 202 205 211 217 222 231 238 240 235 240 249 253 248 258 260 252 254 255 263 270 260 256 265 268 267 276 293 308 315 328 340 360 380 378 380 406 411 413 412 414 413 412 412 408 407 403 407 411 411 415 416 412 405 406 411 450 492 509 458 437 410 374 367 396 362 317 299 287 274 266 259 256 252 244 239 233 227 222 219 214 210 205 209 202 200 200 190 188 208 249 221 206 200 172 186 218 242 256 247 232 240 229 239 248 305 298 301 329 366 410 402 376 348 270 274 234 251 231 213 187 209 391 317 236 220 311 565 479 545 325 520 737 813 862 847 861 586 216 192 93 119 34 58 193 39 6 6 8 -9999 -9999 -9999 -9999 -9999 -9999 -9999 -9999 -9999 -9999 -9999 -9999 -9999 -9999 -9999 24 -9999 -9999 -9999 -9999 -9999 -9999 -9999 -9999 -9999 -9999 -9999 -9999 -9999 -9999 -9999 -9999 -9999 -9999 -9999 -9999 -9999 -9999 -9999 -9999 -9999 -9999 -9999 -9999 -9999 -9999 -9999 -9999 -9999 -9999 -9999 -9999 -9999 -9999 -9999 -9999 -9999 -9999 -9999 -9999 -9999 -9999 -9999 -9999 -9999 -9999 -9999 -9999 -9999 -9999 -9999 -9999 -9999 -9999 -9999 -9999 -9999 -9999 -9999 -9999 -9999 -9999 -9999 -9999 -9999 -9999 -9999 -9999 -9999 -9999 -9999 -9999 -9999 -9999 -9999 -9999 -9999 -9999 -9999 -9999 -9999 -9999 -9999 -9999 -9999 -9999 -9999 -9999 -9999 -9999 -9999 -9999 -9999 -9999 -9999 -9999 -9999
198 211 219 225 223 220 216 208 208 208 210 213 217 222 226 231 236 241 247 253 258 265 275 284 291 298 312 327 336 344 350 368 386 373 390 411 437 455 463 460 473 454 437 457 414 409 380 363 339 323 336 306 298 287 273 263 301 296 263 250 270 260 315 354 391 320 278 225 216 210 206 201 193 188 180 172 164 158 151 147 146 144 144 146 146 143 146 149 148 146 145 148 143 150 155 163 165 162 166 162 166 167 165 164 162 156 152 155 160 167 174 179 182 186 191 195 190 190 197 201 206 212 223 227 231 244 245 241 240 253 260 254 262 260 258 261 258 265 271 264 259 271 278 278 275 293 303 308 316 325 340 352 361 388 417 418 406 405 406 407 404 403 399 399 393 393 398 400 404 407 402 395 395 424 457 487 498 487 428 399 364 347 364 350 310 290 281 272 265 259 253 248 243 237 236 232 228 220 216 216 207 202 201 198 194 195 198 212 242 233 205 199 180 175 191 209 239 268 249 248 255 258 267 280 298 314 323 359 395 394 378 362 327 322 301 299 245 225 213 229 430 372 264 227 259 439 586 579 335 450 452 558 804 895 1014 897 456 92 94 103 68 51 195 56 32 51 16 7 6 -9999 -9999 -9999 -9999 -9999 -9999 -9999 -9999 -9999 -9999 -9999 -9999 -9999 -9999 -9999 -9999 56 -9999 -9999 -9999 -9999 -9999 -9999 -9999 -9999 -9999 -9999 -9999 -9999 -9999 -9999 -9999 -9999 -9999 -9999 -9999 -9999 -9999 -9999 -9999 -9999 -9999 -9999 -9999 -9999 -9999 -9999 -9999 -9999 -9999 -9999 -9999 -9999 -9999 -9999 -9999 -9999 -9999 -9999 -9999 -9999 -9999 -9999 -9999 -9999 -9999 -9999 -9999 -9999 -9999 -9999 -9999 -9999 -9999 -9999 -9999 -9999 -9999 -9999 -9999 -9999 -9999 -9999 -9999 -9999 -9999 -9999 -9999 -9999 -9999 -9999 -9999 -9999 -9999 -9999 -9999 -9999 -9999 -9999 -9999 -9999 -9999 -9999 -9999 -9999 -9999 -9999 -9999 -9999 -9999 -9999 -9999 -9999 -9999 -9999
200 205 210 212 213 208 213 208 203 205 207 211 215 219 223 227 230 235 242 247 251 260 269 277 282 292 302 314 327 333 338 345 355 366 393 417 474 462 454 448 483 496 481 465 416 444 416 423 351 325 304 292 289 275 266 259 267 282 256 296 292 291 314 358 369 351 329 236 227 218 211 206 198 189 183 175 166 157 153 150 149 149 149 155 149 149 149 151 152 152 148 153 150 148 155 160 169 168 168 168 170 173 171 168 162 156 154 155 160 166 172 180 188 192 197 205 201 194 199 206 209 215 223 230 236 250 248 250 244 249 256 260 266 266 262 264 263 268 276 266 265 272 281 282 278 284 290 300 309 321 334 346 417 436 426 415 405 398 398 399 397 396 391 391 386 383 385 390 394 396 393 387 385 411 445 458 480 490 454 401 350 334 337 324 299 289 282 276 265 258 250 243 238 239 239 229 227 223 240 227 220 220 215 200 195 204 215 218 211 205 194 181 172 179 204 228 239 270 269 268 270 285 267 298 306 312 332 352 383 373 361 355 349 352 349 321 274 251 213 234 395 362 380 271 248 311 501 571 498 623 722 697 819 943 714 525 390 187 219 128 114 115 63 40 72 43 65 25 9 7 -9999 -9999 -9999 -9999 -9999 -9999 -9999 -9999 -9999 -9999 -9999 -9999 -9999 -9999 -9999 -9999 -9999 -9999 -9999 -9999 -9999 -9999 -9999 -9999 -9999 -9999 -9999 -9999 -9999 -9999 -9999 -9999 -9999 -9999 -9999 -9999 -9999 -9999 -9999 -9999 -9999 -9999 -9999 -9999 -9999 -9999 -9999 -9999 -9999 -9999 -9999 -9999 -9999 -9999 -9999 -9999 -9999 -9999 -9999 -9999 -9999 -9999 -9999 -9999 -9999 -9999 -9999 -9999 -9999 -9999 -9999 -9999 -9999 -9999 -9999 -9999 -9999 -9999 -9999 -9999 -9999 -9999 -9999 -9999 -9999 -9999 -9999 -9999 -9999 -9999 -9999 -9999 -9999 -9999 -9999 -9999 -9999 -9999 -9999 -9999 -9999 -9999 -9999 -9999 -9999 -9999 -9999 -9999 -9999 -9999 -9999 -9999 -9999 -9999
191 191 197 197 199 202 207 203 202 208 208 208 212 215 218 221 226 231 237 243 250 257 264 271 279 288 298 312 317 323 330 338 352 374 418 441 505 474 485 438 454 520 496 453 447 450 410 405 370 334 304 300 282 275 269 264 267 271 277 343 309 320 338 367 360 331 299 261 231 225 213 204 196 188 180 172 166 160 157 153 151 154 154 157 153 157 154 155 156 160 153 160 158 153 151 157 166 173 173 175 176 176 169 165 161 161 159 155 159 165 172 180 188 198 204 213 212 200 201 209 216 219 222 230 238 250 255 255 248 256 259 265 274 272 272 269 268 272 276 269 274 272 274 282 287 287 294 296 311 319 330 360 419 436 426 404 394 389 389 391 389 388 384 383 382 375 376 381 384 386 383 380 378 389 411 422 441 455 422 383 351 330 317 308 307 308 302 287 273 257 249 242 239 244 243 231 228 242 243 244 239 230 211 201 208 224 237 233 207 203 228 193 171 193 200 222 252 299 269 265 283 269 280 292 323 328 337 361 377 370 371 387 376 335 342 340 323 276 241 255 320 381 398 401 256 308 356 553 675 604 680 791 804 465 357 195 160 122 100 85 162 137 132 92 69 39 43 21 9 9 -9999 -9999 -9999 -9999 -9999 -9999 -9999 -9999 -9999 -9999 -9999 -9999 -9999 -9999 -9999 -9999 -9999 -9999 -9999 -9999 -9999 -9999 -9999 -9999 -9999 -9999 -9999 -9999 -9999 -9999 -9999 -9999 -9999 -9999 -9999 -9999 -9999 -9999 -9999 -9999 -9999 -9999 -9999 -9999 -9999 -9999 -9999 -9999 -9999 -9999 -9999 -9999 -9999 -9999 -9999 -9999 -9999 -9999 -9999 -9999 -9999 -9999 -9999 -9999 -9999 -9999 -9999 -9999 -9999 -9999 -9999 -9999 -9999 -9999 -9999 -9999 -9999 -9999 -9999 -9999 -9999 -9999 -9999 -9999 -9999 -9999 -9999 -9999 -9999 -9999 -9999 -9999 -9999 -9999 -9999 -9999 -9999 -9999 -9999 -9999 -9999 -9999 -9999 -9999 -9999 -9999 -9999 -9999 -9999 -9999 -9999 -9999 -9999 -9999
193 189 187 186 187 192 196 200 207 209 208 207 208 211 214 219 224 229 236 242 249 257 264 271 279 287 295 302 310 316 325 337 354 369 409 428 473 454 483 433 427 484 458 442 418 402 386 364 354 331 323 310 290 275 267 280 295 306 329 342 343 354 359 392 401 369 327 287 245 228 212 201 193 187 180 174 169 165 160 157 156 159 159 158 159 160 157 162 162 166 156 159 167 159 155 158 162 169 177 180 183 178 172 168 164 166 159 156 161 166 173 181 189 194 199 208 213 205 203 209 216 224 230 235 245 254 261 261 256 256 264 270 275 279 281 276 276 278 281 275 276 284 280 282 292 297 306 306 307 317 329 343 378 407 424 413 399 386 381 382 382 380 377 375 373 369 367 373 376 377 375 373 368 363 370 391 406 425 401 369 338 326 316 328 334 361 337 303 282 266 257 246 245 245 240 227 234 252 260 266 248 237 219 211 215 236 262 246 226 215 241 189 171 181 198 249 242 235 226 234 252 249 261 273 310 310 320 340 391 390 388 383 365 340 335 332 280 246 265 289 288 442 435 389 302 267 321 425 573 638 806 756 403 232 180 218 114 85 82 60 53 59 44 37 30 25 19 10 6 4 -9999 -9999 -9999 -9999 -9999 -9999 -9999 -9999 -9999 -9999 -9999 -9999 -9999 -9999 -9999 -9999 -9999 -9999 -9999 -9999 -9999 -9999 -9999 -9999 -9999 -9999 -9999 -9999 -9999 -9999 -9999 -9999 -9999 -9999 -9999 -9999 -9999 -9999 -9999 -9999 -9999 -9999 -9999 -9999 -9999 -9999 -9999 -9999 -9999 -9999 -9999 -9999 -9999 -9999 -9999 -9999 -9999 -9999 -9999 -9999 -9999 -9999 -9999 -9999 -9999 -9999 -9999 -9999 -9999 -9999 -9999 -9999 -9999 -9999 -9999 -9999 -9999 -9999 -9999 -9999 -9999 -9999 -9999 -9999 -9999 -9999 -9999 -9999 -9999 -9999 -9999 -9999 -9999 -9999 -9999 -9999 -9999 -9999 -9999 -9999 -9999 -9999 -9999 -9999 -9999 -9999 -9999 -9999 -9999 -9999 -9999 -9999 -9999 -9999
192 191 188 186 184 187 190 199 207 206 208 206 207 210 213 217 223 229 235 243 250 257 264 271 278 285 292 299 306 315 325 338 349 365 391 427 439 444 440 424 410 418 441 440 416 405 385 352 342 334 313 307 291 280 273 278 295 305 319 322 349 371 394 436 421 368 325 277 263 230 217 206 199 193 186 179 174 170 162 161 164 166 164 162 163 161 161 167 166 171 161 162 170 165 158 159 164 170 176 183 185 180 177 171 171 168 162 159 160 167 173 178 184 189 197 208 216 211 207 215 218 223 231 240 251 260 269 269 263 264 267 274 282 287 289 286 286 290 288 279 280 287 286 288 292 302 313 310 312 321 318 322 334 336 361 400 399 381 374 374 374 373 370 367 366 361 358 364 366 368 368 363 360 359 378 369 362 380 368 346 342 345 332 333 345 373 367 327 299 283 269 257 249 240 234 227 233 245 258 263 243 230 215 222 225 242 270 270 246 233 243 220 174 178 197 219 208 209 218 229 244 239 257 298 305 292 338 363 382 392 395 370 350 352 322 318 292 270 276 310 321 365 536 457 330 270 296 323 438 612 644 742 803 764 463 338 213 103 74 65 61 50 42 59 45 27 15 9 4 -9999 -9999 -9999 -9999 -9999 -9999 -9999 -9999 -9999 -9999 -9999 -9999 -9999 -9999 -9999 -9999 -9999 -9999 -9999 -9999 -9999 -9999 -9999 -9999 -9999 -9999 -9999 -9999 -9999 -9999 -9999 -9999 -9999 -9999 -9999 -9999 -9999 -9999 -9999 -9999 -9999 -9999 -9999 -9999 -9999 -9999 -9999 -9999 -9999 -9999 -9999 -9999 -9999 -9999 -9999 -9999 -9999 -9999 -9999 -9999 -9999 -9999 -9999 -9999 -9999 -9999 -9999 -9999 -9999 -9999 -9999 -9999 -9999 -9999 -9999 -9999 -9999 -9999 -9999 -9999 -9999 -9999 -9999 -9999 -9999 -9999 -9999 -9999 -9999 -9999 -9999 -9999 -9999 -9999 -9999 -9999 -9999 -9999 -9999 -9999 -9999 -9999 -9999 -9999 -9999 -9999 -9999 -9999 -9999 -9999 -9999 -9999 -9999 -9999 -9999
192 191 189 186 185 185 187 196 205 208 209 203 206 211 211 216 222 228 235 242 248 255 262 269 275 282 289 296 307 314 325 338 350 370 411 418 457 465 426 412 403 400 452 420 405 394 369 366 347 325 326 310 295 282 279 295 321 330 341 339 345 367 389 436 402 364 302 264 269 237 223 214 206 197 188 182 175 168 166 166 171 172 172 169 166 166 167 170 172 176 167 168 171 169 162 163 169 169 173 179 187 187 182 175 176 171 166 161 161 163 169 175 179 186 194 203 212 212 215 221 230 233 236 243 255 265 271 276 272 271 274 278 282 291 296 295 301 293 286 286 288 296 294 291 298 303 307 301 299 307 307 308 316 335 351 368 387 376 366 367 367 366 363 360 358 355 350 355 358 360 359 354 351 349 371 370 347 353 345 354 375 376 373 348 325 337 364 368 330 303 286 269 257 246 239 233 232 238 251 259 240 240 217 233 238 254 272 283 249 262 276 247 187 186 176 190 191 214 238 228 227 232 257 284 274 300 313 312 324 367 387 365 365 332 313 311 307 302 300 333 363 359 474 529 325 297 300 351 415 488 565 673 805 771 448 319 240 226 111 107 92 96 54 34 51 30 14 9 6 -9999 3 -9999 -9999 -9999 -9999 -9999 -9999 -9999 -9999 -9999 -9999 -9999 -9999 -9999 -9999 -9999 -9999 -9999 -9999 -9999 -9999 -9999 -9999 -9999 -9999 -9999 -9999 -9999 -9999 -9999 -9999 -9999 -9999 -9999 -9999 -9999 -9999 -9999 -9999 -9999 -9999 -9999 -9999 -9999 -9999 -9999 -9999 -9999 -9999 -9999 -9999 -9999 -9999 -9999 -9999 -9999 -9999 -9999 -9999 -9999 -9999 -9999 -9999 -9999 -9999 -9999 -9999 -9999 -9999 -9999 -9999 -9999 -9999 -9999 -9999 -9999 -9999 -9999 -9999 -9999 -9999 -9999 -9999 -9999 -9999 -9999 -9999 -9999 -9999 -9999 -9999 -9999 -9999 -9999 -9999 -9999 -9999 -9999 -9999 -9999 -9999 -9999 -9999 -9999 -9999 -9999 -9999 -9999 -9999 -9999 -9999 -9999 -9999 -9999
192 189 189 187 186 186 185 191 197 197 199 200 204 208 210 214 220 226 232 239 246 253 259 266 273 279 283 283 302 314 321 331 349 371 417 452 483 480 437 414 393 387 405 396 393 381 366 358 370 333 327 312 303 290 287 292 312 353 356 356 362 411 427 461 447 403 305 283 270 243 229 217 205 198 191 180 174 172 170 171 175 179 179 175 173 170 170 176 179 181 173 175 175 175 170 165 171 175 176 181 187 191 184 182 182 176 169 164 163 168 167 172 178 185 192 201 209 215 218 227 231 235 241 246 254 259 268 279 284 280 281 286 289 295 302 303 305 295 296 294 300 306 301 299 303 304 296 295 292 298 298 306 309 309 315 336 380 372 362 361 360 358 355 353 350 348 344 347 349 350 354 347 341 339 349 378 361 344 347 389 425 410 419 380 338 322 329 363 368 329 309 288 273 262 253 243 238 241 254 264 256 237 227 228 240 261 282 299 279 275 292 231 205 196 178 178 192 204 216 215 217 235 259 250 264 297 278 309 343 350 391 399 401 355 309 298 313 313 320 340 377 375 396 490 334 358 335 328 432 508 533 672 747 672 487 390 246 175 186 110 331 125 60 43 52 30 16 11 6 15 10 2 -9999 -9999 -9999 -9999 -9999 -9999 -9999 -9999 -9999 -9999 -9999 -9999 -9999 -9999 -9999 -9999 -9999 -9999 -9999 -9999 -9999 -9999 -9999 -9999 -9999 -9999 -9999 -9999 -9999 -9999 -9999 -9999 -9999 -9999 -9999 -9999 -9999 -9999 -9999 -9999 -9999 -9999 -9999 -9999 -9999 -9999 -9999 -9999 -9999 -9999 -9999 -9999 -9999 -9999 -9999 -9999 -9999 -9999 -9999 -9999 -9999 -9999 -9999 -9999 -9999 -9999 -9999 -9999 -9999 -9999 -9999 -9999 -9999 -9999 -9999 -9999 -9999 -9999 -9999 -9999 -9999 -9999 -9999 -9999 -9999 -9999 -9999 -9999 -9999 -9999 -9999 -9999 -9999 -9999 -9999 -9999 -9999 -9999 -9999 -9999 -9999 -9999 -9999 -9999 -9999 -9999 -9999 -9999 -9999 -9999 -9999 -9999
191 189 189 188 186 186 183 188 190 189 195 203 204 204 208 213 218 224 231 238 244 251 257 264 270 274 276 284 304 310 313 323 364 404 426 432 471 459 420 404 390 376 406 383 370 360 352 343 356 346 343 326 307 294 298 309 305 323 341 342 366 376 411 472 475 427 354 295 267 245 228 216 211 200 188 183 178 176 175 180 181 186 185 179 180 175 177 182 184 184 180 182 182 185 177 173 173 178 183 185 191 192 189 189 184 178 171 167 167 170 170 171 175 181 188 194 203 216 224 224 231 242 246 249 255 261 269 278 281 274 278 286 292 301 311 312 306 302 306 306 307 303 303 298 295 298 289 290 288 293 293 295 294 305 314 334 361 363 356 355 354 351 349 346 344 342 338 339 341 345 339 338 334 331 346 373 387 384 376 383 409 433 439 392 350 328 318 337 374 384 344 311 292 278 263 252 247 248 249 259 265 244 243 245 239 254 277 294 254 283 275 228 206 184 180 181 199 217 207 208 217 222 234 246 264 271 278 294 319 329 344 351 394 353 300 289 298 309 328 337 342 342 354 407 381 403 399 334 365 421 473 522 771 747 573 362 301 216 143 124 147 271 193 177 38 40 27 12 7 30 26 14 -9999 -9999 -9999 -9999 -9999 -9999 -9999 -9999 98 -9999 -9999 -9999 -9999 -9999 -9999 -9999 -9999 -9999 -9999 -9999 -9999 -9999 -9999 -9999 -9999 -9999 -9999 -9999 -9999 -9999 -9999 -9999 -9999 -9999 -9999 -9999 -9999 -9999 -9999 -9999 -9999 -9999 -9999 -9999 -9999 -9999 -9999 -9999 -9999 -9999 -9999 -9999 -9999 -9999 -9999 -9999 -9999 -9999 -9999 -9999 -9999 -9999 -9999 -9999 -9999 -9999 -9999 -9999 -9999 -9999 -9999 -9999 -9999 -9999 -9999 -9999 -9999 -9999 -9999 -9999 -9999 -9999 -9999 -9999 -9999 -9999 -9999 -9999 -9999 -9999 -9999 -9999 -9999 -9999 -9999 -9999 -9999 -9999 -9999 -9999 -9999 -9999 -9999 -9999 -9999 -9999 -9999 -9999 -9999 -9999 -9999 -9999
191 188 188 189 187 185 182 186 186 188 196 203 201 200 205 211 217 222 229 235 242 248 255 260 264 268 274 287 292 303 307 319 357 409 425 397 445 436 401 381 393 370 374 379 375 363 341 336 333 346 346 322 314 298 312 337 326 318 325 337 343 363 423 480 462 420 409 315 268 242 231 222 210 201 192 189 183 181 183 186 190 194 191 183 184 184 182 188 189 190 188 191 189 190 185 182 178 182 188 194 197 191 185 183 179 175 171 173 173 172 175 175 177 182 186 193 204 218 227 234 235 243 254 260 262 265 267 273 267 266 273 281 291 303 318 322 314 314 314 309 300 294 294 289 288 290 283 286 280 286 288 286 294 309 337 345 364 356 350 347 350 345 343 341 339 336 333 333 335 332 328 329 328 324 338 358 382 386 396 395 397 399 429 404 371 331 315 321 346 384 384 332 313 293 274 267 259 260 263 263 268 256 263 258 244 258 273 288 249 244 240 216 183 179 178 189 205 207 201 203 210 219 239 247 246 268 304 302 306 309 316 319 314 311 284 289 308 302 314 317 334 345 356 356 366 382 401 404 385 422 409 369 547 818 702 521 561 419 231 197 185 209 266 353 266 170 40 17 23 55 34 26 -9999 -9999 -9999 -9999 -9999 -9999 -9999 -9999 -9999 -9999 -9999 1 -9999 -9999 -9999 -9999 -9999 -9999 -9999 -9999 -9999 -9999 -9999 -9999 -9999 -9999 -9999 -9999 -9999 -9999 -9999 -9999 -9999 -9999 -9999 -9999 -9999 -9999 -9999 -9999 -9999 -9999 -9999 -9999 -9999 -9999 -9999 -9999 -9999 -9999 -9999 -9999 -9999 -9999 -9999 -9999 -9999 -9999 -9999 -9999 -9999 -9999 -9999 -9999 -9999 -9999 -9999 -9999 -9999 -9999 -9999 -9999 -9999 -9999 -9999 -9999 -9999 -9999 -9999 -9999 -9999 -9999 -9999 -9999 -9999 -9999 -9999 -9999 -9999 -9999 -9999 -9999 -9999 -9999 -9999 -9999 -9999 -9999 -9999 -9999 -9999 -9999 -9999 -9999 -9999 -9999 -9999 -9999 -9999 -9999 -9999 -9999
191 188 187 188 188 184 181 183 186 194 201 208 202 197 202 208 214 220 227 232 238 244 250 253 258 264 271 278 285 294 302 318 339 371 366 377 418 410 383 370 374 378 359 364 380 367 356 361 332 319 334 330 308 308 313 331 345 342 347 341 346 357 391 436 441 408 416 335 260 245 233 222 212 202 196 191 187 186 188 197 200 198 199 192 193 189 190 194 197 199 199 202 196 198 195 189 184 188 194 201 196 190 187 185 181 178 176 178 179 180 181 182 180 183 190 195 205 213 221 232 245 248 255 255 251 252 259 261 258 264 274 283 292 307 320 322 319 310 307 304 294 288 286 282 284 281 278 276 276 275 279 286 299 302 320 321 351 348 345 339 345 342 337 335 333 331 334 332 325 319 320 321 320 316 327 350 364 378 381 397 421 422 427 415 388 344 316 309 326 355 383 377 357 317 292 293 287 274 276 277 280 278 282 279 255 277 263 257 255 219 224 193 180 185 194 183 195 199 199 200 207 217 223 233 256 266 285 302 284 291 300 322 304 283 277 287 296 302 314 333 363 383 413 393 396 423 418 435 381 373 350 315 366 555 695 596 605 541 354 280 193 239 236 299 278 297 158 36 28 33 13 10 -9999 -9999 -9999 -9999 -9999 -9999 -9999 -9999 -9999 -9999 -9999 -9999 16 -9999 -9999 -9999 -9999 -9999 -9999 -9999 -9999 -9999 -9999 -9999 -9999 -9999 -9999 -9999 -9999 -9999 -9999 -9999 -9999 -9999 -9999 -9999 -9999 -9999 -9999 -9999 -9999 -9999 -9999 -9999 -9999 -9999 -9999 -9999 -9999 -9999 -9999 -9999 -9999 -9999 -9999 -9999 -9999 -9999 -9999 -9999 -9999 -9999 -9999 -9999 -9999 -9999 -9999 -9999 -9999 -9999 -9999 -9999 -9999 -9999 -9999 -9999 -9999 -9999 -9999 -9999 -9999 -9999 -9999 -9999 -9999 -9999 -9999 -9999 -9999 -9999 -9999 -9999 -9999 -9999 -9999 -9999 -9999 -9999 -9999 -9999 -9999 -9999 -9999 -9999 -9999 -9999 -9999 -9999 -9999 -9999 -9999 -9999
189 187 185 186 185 183 180 183 187 197 203 203 196 197 202 208 214 219 224 229 234 239 244 249 255 262 268 275 289 300 311 318 324 343 350 368 433 420 385 369 354 357 352 348 346 354 352 342 353 321 311 328 315 321 330 334 354 382 371 351 355 380 383 391 402 411 418 349 275 260 233 222 214 206 201 194 193 193 194 198 205 210 210 203 204 197 201 205 204 209 214 209 206 207 202 197 192 196 204 206 199 196 194 190 184 179 180 181 185 188 187 187 189 186 191 198 203 211 222 234 247 247 251 244 239 244 251 249 253 261 269 277 287 300 316 313 313 305 299 296 289 282 280 275 277 276 273 269 269 277 286 295 306 313 324 344 341 340 342 334 340 337 333 329 328 325 331 322 318 313 311 311 310 308 309 329 351 368 371 397 413 439 458 422 378 341 315 303 307 322 343 356 371 350 308 338 329 300 289 286 289 278 283 294 270 291 296 238 252 237 211 212 182 180 188 188 199 206 208 203 205 211 229 264 294 280 267 278 265 273 287 309 307 274 290 309 316 332 334 346 397 441 529 513 385 404 414 415 316 293 313 281 288 387 444 512 552 646 412 267 240 272 284 227 398 393 236 89 66 39 15 13 5 -9999 -9999 -9999 -9999 -9999 -9999 -9999 -9999 26 -9999 -9999 44 -9999 -9999 -9999 -9999 -9999 -9999 -9999 -9999 -9999 -9999 -9999 -9999 -9999 -9999 -9999 -9999 -9999 -9999 -9999 -9999 -9999 -9999 -9999 -9999 -9999 -9999 -9999 -9999 -9999 -9999 -9999 -9999 -9999 -9999 -9999 -9999 -9999 -9999 -9999 -9999 -9999 -9999 -9999 -9999 -9999 -9999 -9999 -9999 -9999 -9999 -9999 -9999 -9999 -9999 -9999 -9999 -9999 -9999 -9999 -9999 -9999 -9999 -9999 -9999 -9999 -9999 -9999 -9999 -9999 -9999 -9999 -9999 -9999 -9999 -9999 -9999 -9999 -9999 -9999 -9999 -9999 -9999 -9999 -9999 -9999 -9999 -9999 -9999 -9999 -9999 -9999 -9999 -9999 -9999 -9999 -9999 -9999 -9999 -9999
188 185 183 183 186 183 179 187 195 197 204 203 195 196 201 206 210 215 221 226 231 237 241 247 253 259 265 273 285 300 315 336 346 368 385 370 437 428 386 357 355 342 346 341 326 327 328 325 337 335 307 306 304 320 332 350 358 388 376 371 368 388 408 405 427 450 448 410 319 260 238 228 218 211 205 199 200 203 206 204 208 216 227 218 212 207 213 219 213 223 231 221 220 220 215 206 202 206 215 213 205 203 201 195 187 182 184 187 192 196 195 193 192 192 196 206 208 213 220 232 242 238 236 231 232 237 241 244 250 257 264 273 284 302 314 307 304 300 293 290 284 279 274 271 269 270 268 266 273 280 285 292 311 300 318 332 336 335 332 330 335 332 330 324 323 324 328 314 311 308 305 302 300 300 300 301 330 350 360 387 410 437 443 400 372 333 313 299 302 304 319 331 351 370 350 344 331 325 313 294 284 267 262 270 286 372 362 242 229 257 232 207 182 182 181 188 208 222 221 217 205 208 219 232 248 261 258 251 251 260 270 281 267 272 298 325 316 349 331 351 390 441 507 517 387 383 369 419 308 268 283 286 263 339 354 490 503 544 380 259 256 358 282 216 279 410 242 143 161 38 5 5 9 14 -9999 -9999 -9999 -9999 -9999 -9999 -9999 -9999 -9999 -9999 -9999 21 9 -9999 -9999 -9999 -9999 -9999 -9999 -9999 18 -9999 -9999 -9999 -9999 -9999 -9999 -9999 -9999 -9999 -9999 -9999 -9999 -9999 -9999 -9999 -9999 -9999 -9999 -9999 -9999 -9999 -9999 -9999 -9999 -9999 -9999 -9999 -9999 -9999 -9999 -9999 -9999 -9999 -9999 -9999 -9999 -9999 -9999 -9999 -9999 -9999 -9999 -9999 -9999 -9999 -9999 -9999 -9999 -9999 -9999 -9999 -9999 -9999 -9999 -9999 -9999 -9999 -9999 -9999 -9999 -9999 -9999 -9999 -9999 -9999 -9999 -9999 -9999 -9999 -9999 -9999 -9999 -9999 -9999 -9999 -9999 -9999 -9999 -9999 -9999 -9999 -9999 -9999 -9999 -9999 -9999 -9999 -9999 -9999
188 186 184 181 182 181 181 191 195 201 209 205 198 195 198 203 208 213 218 224 229 234 239 244 250 256 262 272 291 299 312 333 370 374 404 387 429 400 373 345 341 337 343 339 325 316 310 315 312 316 303 295 300 311 318 330 342 354 365 386 384 391 414 443 437 473 466 418 362 263 244 232 221 214 206 207 209 216 218 218 223 223 231 225 219 218 229 234 229 234 238 228 226 227 215 215 216 214 214 215 217 213 209 198 191 186 191 194 201 207 203 200 198 198 204 213 219 222 226 230 230 228 226 228 236 241 244 250 254 262 269 277 290 307 309 301 297 293 288 283 275 272 269 267 263 265 264 263 270 273 276 284 296 291 302 317 329 335 326 327 331 327 324 319 320 328 313 305 304 303 300 297 294 294 294 290 297 326 348 370 403 426 407 368 347 321 304 296 294 303 310 325 364 407 414 394 363 333 328 304 270 267 250 251 270 317 298 244 214 233 220 208 190 183 184 184 188 195 204 208 200 204 213 224 225 237 240 244 249 252 266 257 259 267 294 315 297 313 315 337 369 396 365 339 397 389 351 318 284 259 249 266 257 255 278 436 414 408 305 259 267 310 303 230 247 420 285 315 287 33 4 7 10 11 -9999 7 -9999 -9999 -9999 -9999 -9999 2 -9999 -9999 -9999 -9999 -9999 -9999 -9999 -9999 -9999 -9999 -9999 -9999 18 -9999 -9999 -9999 -9999 -9999 -9999 -9999 -9999 -9999 -9999 -9999 -9999 -9999 -9999 -9999 -9999 -9999 -9999 -9999 -9999 -9999 -9999 -9999 -9999 -9999 -9999 -9999 -9999 -9999 -9999 -9999 -9999 -9999 -9999 -9999 -9999 -9999 -9999 -9999 -9999 -9999 -9999 -9999 -9999 -9999 -9999 -9999 -9999 -9999 -9999 -9999 -9999 -9999 -9999 -9999 -9999 -9999 -9999 -9999 -9999 -9999 -9999 -9999 -9999 -9999 -9999 -9999 -9999 -9999 -9999 -9999 -9999 -9999 -9999 -9999 -9999 -9999 -9999 -9999 -9999 -9999 -9999 -9999 -9999 -9999 -9999 -9999 -9999 -9999
187 185 183 182 182 179 179 184 188 196 206 205 196 194 198 202 207 212 217 221 226 231 237 242 249 255 263 271 280 292 316 336 376 399 414 376 423 392 361 343 330 330 342 341 325 315 305 299 298 296 292 292 300 307 318 334 339 352 362 397 401 403 415 456 470 479 460 409 377 308 254 237 228 219 212 213 223 232 246 245 239 235 256 237 228 231 248 249 233 235 227 223 219 216 209 204 206 207 202 210 216 222 213 202 194 190 193 198 206 215 211 206 206 206 211 219 229 226 221 224 221 220 223 229 240 251 257 263 265 269 280 283 290 296 309 303 293 290 285 280 280 276 271 268 265 259 260 259 264 267 273 276 275 277 286 308 326 328 317 323 326 323 321 317 313 311 306 302 299 297 295 292 290 288 287 284 286 306 323 356 390 386 355 340 325 310 298 295 292 296 308 331 365 412 450 431 398 350 308 297 271 260 249 242 244 241 254 236 215 207 209 192 184 203 195 192 198 198 196 193 195 203 207 211 220 227 233 238 242 252 249 250 252 262 277 289 291 307 320 339 355 390 370 320 359 402 407 317 287 271 241 240 250 242 247 314 380 348 280 251 342 320 464 294 221 324 224 261 277 28 8 6 19 7 4 10 -9999 -9999 -9999 -9999 -9999 -9999 -9999 -9999 -9999 -9999 -9999 -9999 -9999 -9999 -9999 -9999 -9999 -9999 -9999 -9999 -9999 -9999 -9999 -9999 -9999 -9999 -9999 -9999 -9999 -9999 -9999 -9999 -9999 -9999 -9999 -9999 -9999 -9999 -9999 -9999 -9999 -9999 -9999 -9999 -9999 -9999 -9999 -9999 -9999 -9999 -9999 -9999 -9999 -9999 -9999 -9999 -9999 -9999 -9999 -9999 -9999 -9999 -9999 -9999 -9999 -9999 -9999 -9999 -9999 -9999 -9999 -9999 -9999 -9999 -9999 -9999 -9999 -9999 -9999 -9999 -9999 -9999 -9999 -9999 -9999 -9999 -9999 -9999 -9999 -9999 -9999 -9999 -9999 -9999 -9999 -9999 -9999 -9999 -9999 -9999 -9999 -9999 -9999 -9999 -9999 -9999 -9999 -9999
186 185 184 182 181 182 179 176 179 184 194 197 200 193 197 201 206 210 214 218 224 229 233 240 248 257 265 273 282 295 311 339 360 397 403 364 404 373 337 323 317 323 336 342 335 325 324 307 291 284 284 302 320 323 328 342 343 347 355 365 399 377 403 429 443 441 435 406 354 323 261 244 237 229 222 221 223 238 268 294 262 282 293 258 252 250 250 246 233 221 219 216 210 208 205 204 201 197 196 198 204 210 215 207 202 196 200 204 211 223 219 214 219 213 220 225 220 217 212 213 214 219 225 232 240 248 259 271 278 277 276 272 276 286 304 311 302 302 293 290 291 286 281 278 273 264 256 256 259 262 269 266 267 273 293 312 320 321 309 318 320 319 317 315 311 305 303 300 296 293 291 288 285 283 281 279 278 289 306 341 358 337 321 319 331 312 303 297 292 292 303 325 357 418 480 455 409 344 321 302 278 259 247 236 230 226 223 215 210 197 192 186 186 195 199 205 215 219 220 200 197 201 203 207 212 219 221 231 237 244 244 244 248 257 264 273 282 305 326 337 326 338 396 312 370 400 428 330 268 275 250 228 226 247 234 240 290 270 235 232 221 249 351 542 194 225 220 335 233 36 22 42 36 58 8 8 1 -9999 -9999 -9999 -9999 -9999 32 38 16 -9999 -9999 -9999 -9999 -9999 -9999 -9999 -9999 -9999 -9999 -9999 -9999 -9999 -9999 -9999 -9999 -9999 -9999 -9999 -9999 -9999 -9999 -9999 -9999 -9999 -9999 -9999 -9999 -9999 -9999 -9999 -9999 -9999 -9999 -9999 -9999 -9999 -9999 -9999 -9999 -9999 -9999 -9999 -9999 -9999 -9999 -9999 -9999 -9999 -9999 -9999 -9999 -9999 -9999 -9999 -9999 -9999 -9999 -9999 -9999 -9999 -9999 -9999 -9999 -9999 -9999 -9999 -9999 -9999 -9999 -9999 -9999 -9999 -9999 -9999 -9999 -9999 -9999 -9999 -9999 -9999 -9999 -9999 -9999 -9999 -9999 -9999 -9999 -9999 -9999 -9999 -9999 -9999 -9999 -9999 -9999 -9999 -9999 -9999
188 184 183 181 179 180 179 176 176 178 181 185 188 190 195 199 204 207 211 217 221 225 230 239 250 260 269 279 287 297 317 342 351 374 392 363 377 365 330 315 311 329 348 349 348 339 344 312 295 281 283 301 318 316 321 326 329 336 339 370 374 341 365 387 405 413 407 405 362 310 265 251 254 257 236 261 233 251 310 299 294 288 285 286 261 248 239 233 224 221 223 224 222 219 212 215 210 204 199 193 195 206 206 214 211 201 204 212 217 227 227 220 222 213 217 218 208 207 211 216 221 228 231 231 236 242 253 262 270 266 262 262 270 280 292 310 313 312 306 300 291 282 274 270 269 266 260 253 253 257 258 260 266 277 292 313 314 316 304 308 315 315 314 312 310 308 302 297 293 289 286 283 281 278 276 275 274 279 296 327 335 321 348 345 361 345 331 309 297 292 298 319 351 404 433 405 372 343 337 332 284 270 245 233 223 216 210 206 201 193 188 187 189 207 215 218 219 238 233 212 198 199 204 207 210 214 224 228 233 236 238 240 245 254 268 281 292 300 316 304 304 293 320 330 339 392 377 297 256 258 263 234 215 258 210 224 240 340 264 218 212 236 379 464 212 246 215 223 228 92 74 53 39 93 26 -9999 -9999 -9999 -9999 -9999 -9999 -9999 -9999 -9999 57 -9999 -9999 -9999 -9999 -9999 -9999 -9999 -9999 26 120 48 48 -9999 -9999 -9999 -9999 -9999 -9999 -9999 -9999 -9999 -9999 -9999 -9999 -9999 -9999 -9999 -9999 -9999 -9999 -9999 -9999 -9999 -9999 -9999 -9999 -9999 -9999 -9999 -9999 -9999 -9999 -9999 -9999 -9999 -9999 -9999 -9999 -9999 -9999 -9999 -9999 -9999 -9999 -9999 -9999 -9999 -9999 -9999 -9999 -9999 -9999 -9999 -9999 -9999 -9999 -9999 -9999 -9999 -9999 -9999 -9999 -9999 -9999 -9999 -9999 -9999 -9999 -9999 -9999 -9999 -9999 -9999 -9999 -9999 -9999 -9999 -9999 -9999 -9999 -9999 -9999 -9999 1 -9999 -9999 -9999 -9999 -9999
192 184 181 180 178 178 175 175 176 176 178 181 184 188 193 197 201 205 210 213 217 224 232 240 249 257 269 284 295 307 322 330 344 358 368 357 346 339 320 310 304 315 331 336 331 325 330 304 290 280 273 282 300 304 319 316 320 320 334 365 338 340 373 368 384 391 366 361 366 319 266 253 276 274 258 277 245 284 298 307 285 267 277 268 263 247 234 232 231 228 240 242 233 223 221 228 220 215 209 198 190 192 197 204 211 209 209 215 224 234 231 218 210 204 208 206 203 210 217 224 232 240 243 243 244 248 252 262 266 252 251 260 266 277 292 298 311 310 299 291 287 281 279 274 266 260 256 258 250 250 252 260 270 278 289 304 309 309 297 303 308 311 309 308 307 305 302 299 294 289 285 282 278 275 272 271 271 275 285 307 311 333 358 383 396 386 368 336 310 297 297 315 345 400 421 398 353 327 322 317 307 289 258 233 219 210 206 202 196 197 193 189 190 219 244 224 230 241 255 231 216 200 203 206 212 216 220 224 226 230 233 239 245 259 285 294 295 299 313 296 279 285 332 399 335 388 389 277 254 232 233 231 212 213 201 209 207 246 262 211 221 283 285 285 227 368 296 235 269 116 66 76 42 38 16 -9999 -9999 -9999 -9999 -9999 -9999 -9999 -9999 -9999 -9999 -9999 -9999 -9999 -9999 -9999 -9999 -9999 -9999 19 71 -9999 18 -9999 -9999 -9999 -9999 -9999 -9999 -9999 -9999 -9999 -9999 -9999 -9999 -9999 -9999 -9999 -9999 -9999 -9999 -9999 -9999 -9999 -9999 -9999 -9999 -9999 -9999 -9999 -9999 -9999 -9999 -9999 -9999 -9999 -9999 -9999 -9999 -9999 -9999 -9999 -9999 -9999 -9999 -9999 -9999 -9999 -9999 -9999 -9999 -9999 -9999 -9999 -9999 -9999 -9999 -9999 -9999 -9999 -9999 -9999 -9999 -9999 -9999 -9999 -9999 -9999 -9999 -9999 -9999 -9999 -9999 -9999 -9999 -9999 -9999 -9999 -9999 -9999 -9999 -9999 -9999 -9999 -9999 -9999 -9999 -9999 -9999 -9999
190 185 182 181 178 176 175 174 175 177 176 179 183 187 190 194 198 201 205 210 216 223 231 238 245 257 268 279 303 320 344 336 334 331 354 355 333 328 311 299 298 315 335 335 325 317 325 307 289 284 272 273 283 297 316 304 310 311 331 353 327 338 348 344 362 352 336 325 339 323 269 261 296 288 279 267 262 281 302 299 284 270 262 255 248 241 247 260 240 236 261 262 244 228 232 242 226 211 201 195 191 186 188 193 203 205 204 216 225 233 227 215 210 201 203 198 204 213 222 229 226 232 235 243 253 258 259 261 261 245 247 255 264 270 275 281 300 309 302 304 303 294 290 282 273 267 258 251 251 247 251 262 271 282 289 300 300 305 293 295 300 305 303 304 303 301 298 295 292 289 284 280 275 273 271 269 273 281 283 298 329 364 388 371 414 425 400 355 323 304 300 314 343 408 451 383 345 320 310 299 301 326 274 239 227 218 205 200 199 199 192 189 190 213 235 242 235 262 265 243 221 204 201 201 205 215 220 226 227 230 235 242 251 259 282 323 297 290 301 284 272 285 317 360 351 418 380 349 248 235 223 209 205 217 195 198 198 203 215 221 386 274 263 196 230 420 376 325 276 243 127 102 45 16 9 6 -9999 -9999 -9999 -9999 -9999 -9999 -9999 -9999 -9999 -9999 -9999 -9999 -9999 -9999 -9999 -9999 -9999 -9999 -9999 53 38 -9999 -9999 -9999 -9999 -9999 -9999 -9999 -9999 -9999 -9999 -9999 -9999 -9999 -9999 -9999 -9999 -9999 -9999 -9999 -9999 -9999 -9999 -9999 -9999 -9999 -9999 -9999 -9999 -9999 -9999 -9999 -9999 -9999 -9999 -9999 -9999 -9999 -9999 -9999 -9999 -9999 -9999 -9999 -9999 -9999 -9999 -9999 -9999 -9999 -9999 -9999 -9999 -9999 -9999 -9999 -9999 -9999 -9999 -9999 -9999 -9999 -9999 -9999 -9999 -9999 -9999 -9999 -9999 -9999 -9999 -9999 -9999 -9999 -9999 -9999 -9999 -9999 -9999 -9999 -9999 -9999 -9999 -9999 -9999 -9999 -9999 -9999
198 186 183 180 177 176 175 174 173 172 175 178 180 183 187 191 194 198 202 207 214 220 227 233 242 255 263 277 296 322 333 334 322 315 330 335 331 320 314 307 294 319 325 315 312 311 313 309 282 278 269 266 274 288 306 298 298 313 319 321 313 329 322 327 329 319 304 315 303 302 270 273 288 300 295 275 270 280 297 299 293 278 260 261 266 253 274 263 238 246 262 276 243 238 250 230 218 206 203 205 200 190 183 185 194 193 199 210 216 224 223 208 203 195 195 202 211 217 219 215 217 224 234 244 252 262 253 248 252 240 241 247 252 260 272 286 303 319 315 317 317 303 301 290 280 273 266 255 247 245 250 260 269 285 293 294 291 297 291 285 298 297 294 301 299 297 294 292 289 286 283 280 274 269 268 268 282 291 285 297 318 340 350 353 376 393 397 383 341 316 308 322 347 385 436 379 339 312 294 289 275 269 255 231 224 220 208 202 196 194 194 191 190 196 216 235 218 246 268 248 224 207 204 202 203 209 219 225 229 232 239 240 247 254 275 329 310 295 279 268 264 292 327 310 322 395 329 315 254 249 230 211 204 231 196 188 190 185 182 219 277 218 215 207 457 353 340 387 350 261 263 145 54 15 10 -9999 -9999 -9999 -9999 -9999 -9999 -9999 -9999 -9999 -9999 -9999 -9999 -9999 -9999 -9999 -9999 -9999 -9999 -9999 -9999 49 65 -9999 4 -9999 -9999 -9999 -9999 -9999 -9999 -9999 -9999 -9999 -9999 -9999 -9999 -9999 -9999 -9999 -9999 -9999 -9999 -9999 -9999 -9999 -9999 -9999 -9999 -9999 -9999 -9999 -9999 -9999 -9999 -9999 -9999 -9999 -9999 -9999 -9999 -9999 -9999 -9999 -9999 -9999 -9999 -9999 -9999 -9999 -9999 -9999 -9999 -9999 -9999 -9999 -9999 -9999 -9999 -9999 -9999 -9999 -9999 -9999 -9999 -9999 -9999 -9999 -9999 -9999 -9999 -9999 -9999 -9999 -9999 -9999 -9999 -9999 -9999 -9999 -9999 -9999 -9999 -9999 -9999 -9999 -9999 -9999 -9999 -9999
212 194 187 181 177 176 175 175 175 173 174 175 178 181 185 188 190 194 198 204 210 217 223 230 237 246 258 276 297 303 320 337 326 314 304 315 310 316 335 323 288 294 310 303 295 295 290 306 275 270 266 259 266 275 291 304 291 295 300 300 314 320 310 309 301 292 302 312 285 274 264 271 282 290 283 271 283 301 304 288 282 268 263 272 280 262 286 260 247 260 279 280 254 262 246 226 215 209 213 214 204 195 186 180 185 185 196 207 208 214 221 208 196 191 199 212 217 210 206 208 213 223 231 239 250 259 248 239 247 234 242 253 259 268 282 298 313 310 310 306 305 295 290 286 280 271 261 257 250 244 246 255 262 274 285 281 283 289 290 280 289 286 297 298 295 293 291 289 287 283 280 275 268 266 269 281 271 275 285 298 324 349 359 352 394 411 426 402 359 330 316 322 338 357 401 401 351 306 284 273 262 252 241 230 219 211 203 198 201 198 196 201 192 192 197 213 210 230 260 247 224 207 205 205 205 208 215 226 234 236 234 237 262 274 277 315 325 304 269 254 276 305 292 299 326 361 359 294 282 253 236 213 197 239 211 191 180 175 177 207 268 207 228 220 325 255 392 332 358 292 343 221 56 16 9 64 -9999 -9999 -9999 -9999 -9999 -9999 -9999 15 -9999 -9999 -9999 -9999 -9999 -9999 -9999 -9999 -9999 -9999 -9999 -9999 -9999 -9999 -9999 -9999 -9999 -9999 -9999 -9999 -9999 -9999 -9999 -9999 -9999 -9999 -9999 -9999 -9999 -9999 -9999 -9999 -9999 -9999 -9999 -9999 -9999 -9999 -9999 -9999 -9999 -9999 -9999 -9999 -9999 -9999 -9999 -9999 -9999 -9999 -9999 -9999 -9999 -9999 -9999 -9999 -9999 -9999 -9999 -9999 -9999 -9999 -9999 -9999 -9999 -9999 -9999 -9999 -9999 -9999 -9999 -9999 -9999 -9999 -9999 -9999 -9999 -9999 -9999 -9999 -9999 -9999 -9999 -9999 -9999 -9999 -9999 -9999 -9999 -9999 -9999 -9999 -9999 -9999 -9999 -9999 -9999 -9999 -9999 -9999
221 204 195 184 180 177 176 177 177 176 171 175 177 179 182 184 186 191 196 202 207 214 219 226 238 251 266 286 312 314 322 326 314 305 297 304 319 324 322 305 286 290 323 303 293 286 279 280 270 262 262 256 260 266 280 295 285 282 292 306 304 304 297 299 297 282 286 290 272 264 260 272 270 279 277 270 277 301 297 291 274 278 270 280 285 272 282 261 252 269 290 286 272 279 254 229 218 222 229 218 208 195 187 180 177 184 192 201 199 203 211 200 191 194 207 219 208 200 203 211 217 225 233 245 253 259 247 232 236 230 239 249 260 272 283 292 302 297 299 294 287 287 280 270 270 265 262 252 254 243 241 251 258 264 269 275 273 287 290 276 279 288 295 294 292 290 288 287 284 281 275 274 269 264 268 269 270 276 291 308 330 358 378 355 375 414 422 416 380 341 321 318 317 324 348 371 342 301 277 264 255 246 237 227 216 209 205 203 200 199 198 202 202 197 195 203 212 223 231 227 213 207 208 207 206 207 212 218 221 225 233 235 243 248 269 286 287 276 261 247 267 278 310 332 315 312 380 353 308 238 223 216 200 193 192 197 184 171 171 191 187 183 206 230 216 225 278 235 216 305 341 238 117 16 7 13 -9999 -9999 -9999 -9999 -9999 -9999 -9999 29 -9999 -9999 -9999 -9999 -9999 -9999 -9999 -9999 -9999 -9999 -9999 -9999 -9999 -9999 -9999 -9999 -9999 -9999 -9999 -9999 -9999 -9999 -9999 -9999 -9999 -9999 -9999 -9999 -9999 -9999 -9999 -9999 -9999 -9999 -9999 -9999 -9999 -9999 -9999 -9999 -9999 -9999 -9999 -9999 -9999 -9999 -9999 -9999 -9999 -9999 -9999 -9999 -9999 -9999 -9999 -9999 -9999 -9999 -9999 -9999 -9999 -9999 -9999 -9999 -9999 -9999 -9999 -9999 -9999 -9999 -9999 -9999 -9999 -9999 -9999 -9999 -9999 -9999 -9999 -9999 -9999 -9999 -9999 -9999 -9999 -9999 -9999 -9999 -9999 -9999 -9999 -9999 -9999 -9999 -9999 -9999 -9999 -9999 -9999 -9999
225 211 201 192 187 183 184 185 178 172 171 173 174 175 178 180 184 188 193 197 203 209 213 219 232 257 260 274 303 316 316 307 307 297 290 302 324 338 301 286 285 274 315 298 295 288 278 269 270 255 256 252 254 260 273 279 273 282 289 300 297 286 284 281 282 273 271 274 260 253 251 257 270 284 275 264 272 295 301 285 284 293 281 273 283 290 288 269 261 268 288 294 286 266 249 232 228 242 257 233 207 198 191 182 175 176 183 192 193 195 203 195 188 192 200 210 203 196 205 212 217 225 235 235 243 249 236 226 226 230 239 246 256 266 268 277 295 290 284 282 278 272 266 261 257 254 250 246 245 246 239 245 248 253 265 274 270 276 281 276 274 291 292 292 289 286 286 284 282 276 274 273 275 260 259 259 262 273 279 316 336 362 381 368 352 373 384 402 398 354 335 318 298 310 310 321 347 322 280 261 248 240 232 225 221 212 205 205 200 199 203 210 208 199 197 208 232 236 223 219 214 211 211 211 209 209 210 213 216 219 223 228 238 254 276 274 267 271 265 253 248 266 282 290 277 310 283 364 304 233 224 221 215 194 181 181 185 179 167 169 163 169 200 326 334 279 324 241 213 427 412 174 98 52 11 6 -9999 -9999 -9999 -9999 -9999 -9999 -9999 -9999 -9999 -9999 -9999 -9999 -9999 -9999 -9999 -9999 -9999 -9999 -9999 -9999 -9999 -9999 -9999 -9999 -9999 -9999 -9999 -9999 -9999 -9999 -9999 -9999 -9999 -9999 -9999 -9999 -9999 -9999 -9999 -9999 -9999 -9999 -9999 -9999 -9999 -9999 -9999 -9999 -9999 -9999 -9999 -9999 -9999 -9999 -9999 -9999 -9999 -9999 -9999 -9999 -9999 -9999 -9999 -9999 -9999 -9999 -9999 -9999 -9999 -9999 -9999 -9999 -9999 -9999 -9999 -9999 -9999 -9999 -9999 -9999 -9999 -9999 -9999 -9999 -9999 -9999 -9999 -9999 -9999 -9999 -9999 -9999 -9999 -9999 -9999 -9999 -9999 -9999 -9999 -9999 -9999 -9999 -9999 -9999 -9999 -9999 -9999 -9999
220 215 210 204 195 190 183 177 172 170 169 170 172 172 175 177 180 184 188 193 199 202 205 213 235 245 260 269 296 329 327 309 296 289 285 288 302 310 286 275 281 265 287 280 281 278 273 267 259 254 249 248 252 258 268 264 273 278 288 300 298 293 289 282 268 263 262 258 250 244 246 264 284 281 268 258 272 288 302 280 290 301 283 260 270 291 288 270 268 284 291 285 264 259 243 232 241 249 264 232 216 210 200 187 176 171 175 183 182 189 201 197 187 184 192 202 195 193 200 202 210 218 223 226 236 234 222 220 224 227 231 238 248 253 260 275 291 290 290 282 277 278 273 275 268 266 260 251 243 243 240 241 255 262 272 269 262 261 269 270 273 277 286 289 287 283 282 280 279 273 271 263 263 256 257 257 259 265 273 310 340 371 392 390 364 345 355 363 372 343 327 305 298 290 288 295 316 315 285 282 257 233 225 218 211 206 205 205 203 200 214 224 221 205 203 210 244 239 234 247 219 219 217 215 215 213 211 212 216 223 226 241 253 257 262 259 254 261 256 260 236 239 261 248 269 295 260 272 267 242 265 271 248 221 204 174 178 175 172 160 159 168 190 262 390 397 530 249 225 448 493 328 115 108 26 8 -9999 -9999 -9999 9 -9999 -9999 -9999 -9999 -9999 -9999 -9999 -9999 -9999 -9999 14 -9999 -9999 -9999 -9999 -9999 -9999 -9999 -9999 -9999 -9999 -9999 -9999 -9999 35 -9999 -9999 -9999 -9999 -9999 -9999 -9999 -9999 -9999 -9999 -9999 -9999 -9999 -9999 -9999 -9999 -9999 -9999 -9999 -9999 -9999 -9999 -9999 -9999 -9999 -9999 -9999 -9999 -9999 -9999 -9999 -9999 -9999 -9999 -9999 -9999 -9999 -9999 -9999 -9999 -9999 -9999 -9999 -9999 -9999 -9999 -9999 -9999 -9999 -9999 -9999 -9999 -9999 -9999 -9999 -9999 -9999 -9999 -9999 -9999 -9999 -9999 -9999 -9999 -9999 -9999 -9999 -9999 -9999 -9999 -9999 -9999 -9999 -9999 -9999 -9999 -9999 -9999 -9999
210 210 206 208 209 199 193 185 176 170 168 168 168 170 173 175 177 180 184 191 194 197 199 212 224 232 258 276 296 331 304 317 301 295 286 277 277 288 271 266 273 261 279 267 274 267 260 256 258 262 245 243 250 255 257 259 276 286 283 286 286 296 296 286 264 260 255 250 244 239 245 266 283 273 259 255 273 288 285 272 291 303 274 250 276 294 287 281 273 289 291 261 251 242 233 228 249 271 266 241 220 207 196 186 179 171 170 174 179 189 213 217 193 181 185 192 186 189 193 199 203 209 215 227 238 226 215 223 232 238 241 245 245 251 258 272 285 278 282 281 280 286 289 286 285 274 264 260 247 238 238 241 251 259 270 269 262 255 257 263 262 273 283 285 284 279 278 273 275 272 264 259 257 254 259 262 265 262 273 302 341 370 387 411 407 371 334 321 320 313 324 295 298 287 273 270 306 315 294 259 245 228 221 221 215 207 206 207 203 201 211 223 221 207 201 207 220 231 230 248 236 246 231 219 221 217 213 213 215 221 228 236 245 259 265 258 256 261 250 250 243 229 225 246 274 317 258 235 244 241 259 299 284 217 212 181 172 163 162 157 156 159 170 211 271 322 403 207 229 411 418 309 384 192 66 12 -9999 5 -9999 8 1 -9999 -9999 21 20 6 -9999 -9999 -9999 -9999 -9999 15 32 -9999 -9999 -9999 -9999 -9999 -9999 -9999 -9999 -9999 -9999 -9999 24 -9999 -9999 -9999 -9999 -9999 -9999 -9999 -9999 -9999 -9999 -9999 -9999 -9999 -9999 -9999 -9999 -9999 -9999 -9999 -9999 -9999 -9999 -9999 -9999 -9999 -9999 -9999 -9999 -9999 -9999 -9999 -9999 -9999 -9999 -9999 -9999 -9999 -9999 -9999 -9999 -9999 -9999 -9999 -9999 -9999 -9999 -9999 -9999 -9999 -9999 -9999 -9999 -9999 -9999 -9999 -9999 -9999 -9999 -9999 -9999 -9999 -9999 -9999 -9999 -9999 -9999 -9999 -9999 -9999 -9999 -9999 -9999 -9999 -9999 -9999 -9999 -9999 -9999 -9999
203 200 199 201 210 201 190 181 174 170 166 168 166 166 171 175 176 179 180 185 189 193 202 210 218 230 252 264 278 281 269 296 282 283 275 275 270 264 260 257 260 257 257 257 259 254 252 249 260 264 246 239 246 249 256 263 261 266 270 273 274 280 274 270 255 252 253 244 239 235 246 276 281 266 258 249 260 276 280 264 298 307 264 236 258 285 298 283 283 283 257 270 263 250 226 224 246 265 248 229 210 199 190 183 178 171 167 173 182 191 199 197 188 180 182 184 182 191 202 209 213 219 222 227 228 217 213 221 228 238 251 260 257 266 267 280 289 278 268 266 266 273 275 269 275 274 264 264 249 237 234 243 249 257 270 276 268 257 249 253 258 273 282 282 280 273 274 271 265 260 259 257 252 252 254 262 269 263 273 302 343 371 391 418 440 404 361 331 308 299 298 285 277 283 277 265 271 277 296 271 248 232 223 219 214 210 210 208 208 209 208 212 210 205 203 206 211 219 221 235 264 273 252 223 224 225 218 217 218 220 226 237 243 253 266 265 274 298 288 254 240 231 220 227 262 268 248 225 220 226 231 228 231 217 192 182 177 162 154 151 152 152 166 200 226 210 278 177 188 243 343 299 344 369 185 34 13 -9999 -9999 -9999 -9999 -9999 -9999 -9999 18 -9999 -9999 5 -9999 -9999 -9999 -9999 -9999 -9999 -9999 -9999 33 19 30 -9999 -9999 -9999 -9999 -9999 -9999 -9999 -9999 -9999 -9999 -9999 -9999 -9999 -9999 -9999 -9999 -9999 -9999 -9999 -9999 -9999 -9999 -9999 -9999 -9999 -9999 -9999 -9999 -9999 -9999 -9999 -9999 -9999 -9999 -9999 -9999 -9999 -9999 -9999 -9999 -9999 -9999 -9999 -9999 -9999 -9999 -9999 -9999 -9999 -9999 -9999 -9999 -9999 -9999 1 -9999 -9999 -9999 -9999 -9999 -9999 -9999 -9999 -9999 -9999 -9999 -9999 -9999 -9999 -9999 -9999 -9999 -9999 -9999 -9999 -9999 -9999 -9999 -9999 -9999 -9999 -9999 -9999 -9999 -9999
192 193 192 194 203 198 192 182 175 171 169 170 175 170 166 170 175 176 177 182 189 195 202 208 223 240 258 255 254 251 265 273 289 295 285 279 266 261 257 253 249 252 247 249 248 244 240 241 264 262 249 236 240 248 264 282 273 265 271 268 270 269 261 258 254 245 240 237 234 235 249 261 270 261 248 245 257 286 281 267 286 302 254 228 253 274 306 293 268 238 226 240 272 248 218 226 252 267 247 225 212 197 189 181 176 172 166 171 187 203 206 200 190 180 179 177 181 191 204 217 223 231 235 229 217 208 214 223 235 248 254 245 251 266 269 280 295 288 279 267 258 258 260 253 256 256 252 246 246 236 232 241 248 253 256 264 267 263 248 249 257 266 278 279 274 269 270 270 264 256 255 252 249 249 251 259 261 266 270 294 332 372 390 412 443 437 401 355 325 319 295 296 284 280 269 263 257 253 281 285 253 231 225 220 217 213 211 215 240 249 230 214 205 205 206 210 211 212 215 230 259 257 250 227 226 229 231 228 230 232 241 249 262 253 268 277 287 322 339 281 255 232 237 219 208 215 221 223 211 224 212 203 197 186 175 174 174 169 163 154 149 149 161 182 200 170 203 228 173 193 288 335 397 440 286 80 14 -9999 -9999 -9999 -9999 -9999 -9999 -9999 -9999 26 -9999 -9999 -9999 -9999 -9999 -9999 -9999 -9999 -9999 -9999 -9999 -9999 -9999 -9999 -9999 -9999 -9999 -9999 -9999 -9999 -9999 -9999 -9999 -9999 -9999 -9999 -9999 -9999 -9999 -9999 -9999 -9999 -9999 -9999 -9999 -9999 -9999 -9999 -9999 -9999 -9999 -9999 -9999 -9999 -9999 -9999 -9999 -9999 -9999 -9999 -9999 -9999 -9999 -9999 -9999 -9999 -9999 -9999 -9999 -9999 -9999 -9999 -9999 -9999 -9999 -9999 -9999 -9999 -9999 -9999 -9999 -9999 -9999 -9999 -9999 -9999 -9999 -9999 -9999 -9999 -9999 -9999 -9999 -9999 -9999 -9999 -9999 -9999 -9999 -9999 -9999 -9999 -9999 -9999 -9999 -9999 -9999 -9999
183 185 184 190 196 199 193 188 185 181 177 180 179 176 167 165 171 173 175 180 187 190 196 207 218 240 259 247 236 255 282 298 295 286 292 292 279 262 264 260 247 243 242 242 243 239 235 236 238 247 236 248 242 248 258 272 280 271 276 274 264 274 259 242 243 238 233 230 228 229 244 253 255 248 240 241 258 293 275 254 272 264 239 222 240 273 252 259 256 228 214 219 247 238 211 233 267 262 246 234 210 198 189 180 174 168 164 171 185 203 206 191 190 180 173 178 182 191 205 219 233 235 225 217 211 208 220 229 238 243 236 233 246 254 256 274 288 281 276 264 258 253 251 249 246 243 240 239 234 236 230 238 244 243 245 258 261 252 246 246 256 269 274 275 271 266 265 266 255 248 250 247 246 246 248 251 256 259 267 293 331 372 397 420 442 450 402 364 332 320 309 302 299 288 280 268 261 263 256 253 241 232 227 221 218 215 215 224 259 276 258 230 210 208 208 211 217 215 215 242 277 239 228 230 229 232 237 239 245 250 256 258 268 267 265 279 292 317 338 298 273 254 235 221 212 204 201 203 201 202 209 200 190 179 172 167 166 165 165 156 144 145 154 168 168 176 198 318 184 212 258 310 335 322 263 115 60 4 -9999 -9999 -9999 -9999 -9999 -9999 17 29 -9999 24 11 -9999 -9999 -9999 -9999 -9999 -9999 -9999 -9999 -9999 -9999 -9999 -9999 -9999 -9999 -9999 -9999 -9999 -9999 -9999 -9999 -9999 -9999 -9999 -9999 -9999 -9999 -9999 -9999 -9999 -9999 -9999 -9999 -9999 -9999 -9999 -9999 -9999 -9999 -9999 -9999 -9999 -9999 -9999 -9999 -9999 -9999 -9999 -9999 -9999 -9999 -9999 -9999 -9999 -9999 -9999 -9999 -9999 -9999 -9999 -9999 -9999 -9999 -9999 -9999 -9999 -9999 -9999 -9999 -9999 -9999 -9999 -9999 -9999 -9999 -9999 -9999 -9999 -9999 -9999 -9999 -9999 -9999 -9999 -9999 -9999 -9999 -9999 -9999 -9999 -9999 -9999 -9999 -9999 -9999 -9999
179 179 181 182 188 196 192 195 192 193 187 188 182 175 168 166 165 171 175 176 181 186 193 203 227 240 232 238 229 248 269 283 289 269 283 286 282 272 272 268 261 250 240 235 237 233 229 231 230 227 229 254 262 253 259 269 272 277 284 281 266 254 255 243 231 229 227 223 223 224 229 235 243 235 236 242 253 272 274 233 237 246 223 213 227 237 224 226 236 232 214 212 228 228 205 222 226 245 244 225 215 203 189 182 173 167 163 170 184 197 199 186 182 177 171 175 182 191 203 214 230 221 212 211 204 213 225 235 239 234 223 232 244 239 248 259 273 277 269 269 270 271 259 262 255 257 248 243 237 231 228 235 237 233 244 261 257 252 245 242 256 258 270 271 269 266 257 263 252 243 244 244 243 244 245 247 247 249 270 303 338 370 402 427 438 418 382 348 322 305 301 298 298 296 286 266 260 278 284 278 280 253 231 222 219 217 217 231 264 300 278 237 215 211 211 213 218 219 235 229 253 256 230 229 232 235 241 246 249 253 260 268 275 277 278 279 301 314 353 322 273 252 233 224 221 208 201 193 189 189 219 210 188 177 168 163 161 158 158 157 144 143 161 160 165 156 229 331 208 282 342 268 315 179 240 44 59 27 3 -9999 -9999 -9999 -9999 -9999 4 20 11 18 19 20 -9999 -9999 -9999 -9999 -9999 -9999 -9999 -9999 -9999 -9999 -9999 -9999 -9999 -9999 -9999 -9999 -9999 -9999 -9999 -9999 -9999 -9999 -9999 -9999 -9999 -9999 -9999 -9999 -9999 -9999 -9999 -9999 -9999 -9999 -9999 -9999 -9999 -9999 -9999 -9999 -9999 -9999 -9999 -9999 -9999 -9999 -9999 -9999 -9999 -9999 -9999 -9999 -9999 -9999 -9999 -9999 -9999 -9999 -9999 -9999 -9999 -9999 -9999 -9999 -9999 -9999 -9999 -9999 -9999 -9999 -9999 -9999 -9999 -9999 -9999 -9999 -9999 -9999 -9999 -9999 -9999 -9999 -9999 -9999 -9999 -9999 -9999 -9999 -9999 -9999 -9999 -9999 -9999 -9999
181 175 173 177 182 186 185 189 196 200 195 192 196 183 174 166 164 164 171 174 176 181 186 198 218 223 214 219 228 255 283 267 265 252 271 284 286 287 272 258 247 238 235 231 231 230 226 223 226 223 224 233 261 262 253 258 264 280 294 281 259 240 246 239 229 223 220 219 224 225 225 227 229 232 239 245 260 268 267 227 223 229 225 209 211 220 213 212 211 216 215 208 209 229 203 209 230 226 239 239 226 205 189 177 169 162 164 172 184 184 185 179 173 169 175 180 186 196 202 215 226 219 209 202 205 219 225 222 224 220 218 232 235 233 245 247 257 272 280 283 280 280 268 275 270 261 257 253 250 239 227 228 231 237 243 251 259 253 243 238 246 251 268 267 268 263 252 254 251 241 241 241 241 242 243 243 242 251 272 306 348 376 392 407 401 381 357 332 312 296 291 290 291 294 290 272 262 281 315 333 309 276 240 221 221 220 219 229 266 282 259 230 215 214 213 217 219 224 253 237 235 253 237 235 235 240 246 254 258 257 261 270 274 284 290 294 324 334 334 328 274 262 246 238 237 223 212 206 194 181 242 224 193 173 164 160 177 159 151 155 146 138 146 145 140 157 283 319 253 241 278 318 324 214 72 34 10 20 -9999 -9999 -9999 -9999 -9999 -9999 7 10 5 18 33 32 9 -9999 -9999 -9999 -9999 -9999 -9999 -9999 -9999 -9999 -9999 -9999 -9999 -9999 -9999 -9999 -9999 -9999 -9999 -9999 -9999 -9999 -9999 -9999 -9999 -9999 -9999 -9999 -9999 -9999 -9999 -9999 -9999 -9999 -9999 -9999 -9999 -9999 -9999 -9999 -9999 -9999 -9999 -9999 -9999 -9999 -9999 -9999 -9999 -9999 -9999 -9999 -9999 -9999 -9999 -9999 -9999 -9999 -9999 -9999 -9999 -9999 -9999 -9999 -9999 -9999 -9999 -9999 -9999 -9999 -9999 -9999 -9999 -9999 -9999 -9999 -9999 -9999 -9999 -9999 -9999 -9999 -9999 -9999 -9999 -9999 -9999 -9999 -9999 -9999 -9999 -9999 -9999 -9999
186 178 169 170 173 173 177 186 194 194 196 201 209 215 199 173 169 162 164 171 172 175 183 195 206 209 206 212 230 250 270 259 244 238 254 268 273 280 274 260 251 248 250 235 228 227 224 219 224 222 220 226 248 259 247 248 261 276 294 276 253 232 225 220 216 216 214 216 222 228 230 232 233 237 250 253 269 281 257 225 215 215 220 205 202 204 207 212 206 203 206 197 215 214 212 204 209 223 240 234 211 193 183 176 170 160 163 175 176 174 172 173 168 170 174 183 192 199 207 221 230 229 222 198 204 209 211 208 207 209 215 220 221 225 230 238 246 262 284 291 291 285 284 286 274 263 269 264 258 246 232 224 230 231 239 239 243 242 252 259 236 244 259 265 266 252 243 247 244 237 237 238 238 241 243 242 242 250 279 311 352 376 379 375 380 347 326 309 294 286 285 287 289 299 299 281 278 304 334 359 332 280 246 224 222 223 221 222 241 250 234 221 217 217 216 226 225 227 226 228 237 239 246 244 246 248 258 269 263 266 269 279 285 283 299 309 342 384 334 314 310 286 276 285 243 220 214 205 194 180 182 196 184 173 166 156 167 156 149 153 142 134 155 149 136 177 288 326 299 278 298 399 366 245 53 60 16 11 -9999 -9999 -9999 -9999 -9999 -9999 2.7308146854920778424e-08 8 6 36 16 24 23 -9999 -9999 -9999 4 7 -9999 -9999 10 20 42 -9999 -9999 -9999 -9999 -9999 -9999 -9999 -9999 -9999 -9999 -9999 -9999 -9999 -9999 -9999 -9999 -9999 -9999 -9999 -9999 -9999 -9999 -9999 -9999 -9999 -9999 -9999 -9999 -9999 -9999 -9999 -9999 -9999 -9999 -9999 -9999 -9999 -9999 -9999 -9999 -9999 -9999 -9999 -9999 -9999 -9999 -9999 -9999 -9999 -9999 -9999 -9999 -9999 -9999 -9999 -9999 -9999 -9999 -9999 -9999 -9999 -9999 -9999 -9999 -9999 -9999 -9999 -9999 -9999 -9999 -9999 -9999 -9999 -9999 -9999 -9999 -9999 -9999 -9999 -9999 -9999 -9999 -9999
172 168 166 166 169 168 174 184 187 189 190 198 201 210 199 179 169 161 159 164 167 170 180 192 191 196 201 213 236 258 276 268 257 234 235 246 254 270 277 263 252 258 257 258 244 220 221 218 221 220 217 221 232 239 240 245 260 284 287 268 241 224 216 211 209 210 211 216 224 237 243 248 250 249 250 264 275 267 237 233 215 206 212 210 195 200 212 228 212 213 206 188 197 209 197 211 232 239 242 243 220 199 185 176 166 158 170 164 162 163 163 164 168 173 174 181 190 202 212 218 220 221 214 195 196 198 202 207 215 217 220 222 228 230 239 240 250 260 276 294 290 284 281 278 269 262 263 267 258 247 233 224 223 226 234 230 230 245 256 248 234 243 253 260 255 252 241 236 236 234 235 236 237 240 241 241 243 252 275 304 353 382 386 356 339 320 309 293 282 280 281 284 289 299 310 292 284 301 316 353 325 278 243 229 224 225 224 222 224 227 223 222 221 221 224 231 232 234 230 230 235 246 253 248 249 253 271 278 276 276 284 285 298 296 294 306 332 356 361 327 382 319 297 330 252 226 216 199 190 184 172 176 176 171 166 168 160 146 146 149 144 132 134 135 137 160 203 244 285 328 378 417 337 190 70 27 20 21 5 -9999 -9999 -9999 -9999 -9999 -9999 3 9 19 9 28 40 24 -9999 1 -9999 -9999 -9999 -9999 8 10 32 14 -9999 -9999 -9999 -9999 -9999 -9999 -9999 -9999 -9999 -9999 -9999 -9999 -9999 -9999 -9999 -9999 -9999 -9999 -9999 -9999 -9999 -9999 -9999 -9999 -9999 -9999 -9999 -9999 -9999 -9999 -9999 -9999 -9999 -9999 -9999 -9999 -9999 -9999 -9999 -9999 -9999 -9999 -9999 -9999 -9999 -9999 -9999 -9999 -9999 -9999 -9999 0 -9999 -9999 -9999 -9999 -9999 -9999 -9999 -9999 -9999 -9999 -9999 -9999 -9999 -9999 -9999 -9999 -9999 -9999 -9999 -9999 -9999 -9999 -9999 -9999 -9999 -9999 -9999 -9999 -9999 -9999
182 179 170 163 162 163 169 175 180 180 184 189 202 198 190 173 164 160 157 158 161 167 178 183 186 190 198 208 224 248 247 256 250 231 222 239 240 256 262 259 258 261 253 253 256 216 216 214 213 214 214 217 223 233 248 259 271 286 280 245 225 217 211 204 203 206 212 220 235 244 253 252 249 260 261 253 261 231 217 231 223 207 199 197 191 195 214 226 227 225 208 203 186 184 194 209 227 216 228 241 227 197 183 182 165 156 157 158 159 162 167 173 177 189 183 185 190 197 201 202 202 205 203 192 198 211 213 221 223 230 232 236 240 244 247 255 257 273 287 284 276 270 266 260 254 250 246 246 247 244 235 229 222 220 225 226 232 252 259 256 239 241 244 247 243 243 235 231 230 231 233 234 236 237 240 241 244 250 274 306 353 373 369 330 313 296 291 282 279 281 283 290 298 313 313 300 287 280 287 311 300 269 248 232 226 227 229 225 228 227 225 222 224 231 237 243 244 241 236 238 241 243 254 257 261 267 276 292 285 296 290 296 303 315 314 309 321 348 376 346 433 398 342 357 265 217 207 197 188 178 167 171 171 166 162 159 150 168 140 144 146 138 132 130 137 164 167 188 230 347 405 395 125 48 22 18 8 6 4 5 -9999 -9999 -9999 -9999 -9999 -9999 9 13 5 19 38 29 15 -9999 -9999 -9999 -9999 -9999 6 15 28 14 19 -9999 -9999 -9999 -9999 -9999 -9999 -9999 -9999 -9999 -9999 -9999 -9999 -9999 -9999 -9999 -9999 -9999 -9999 -9999 -9999 -9999 -9999 -9999 -9999 -9999 -9999 -9999 -9999 -9999 -9999 -9999 -9999 -9999 -9999 -9999 -9999 -9999 -9999 -9999 -9999 -9999 -9999 -9999 -9999 -9999 -9999 -9999 -9999 -9999 -9999 -9999 -9999 -9999 -9999 -9999 -9999 -9999 -9999 -9999 -9999 -9999 -9999 -9999 -9999 -9999 -9999 -9999 -9999 -9999 -9999 -9999 -9999 -9999 -9999 -9999 -9999 -9999 -9999 -9999 -9999 -9999
190 185 179 170 162 161 162 166 170 171 177 187 196 190 181 172 166 161 156 155 157 162 169 175 180 186 194 206 211 223 235 244 248 234 216 224 226 242 254 247 249 250 243 242 245 215 209 208 206 210 212 217 233 238 241 252 261 259 265 236 214 205 202 199 202 208 214 215 227 232 235 230 235 250 264 234 233 219 206 206 217 217 199 192 187 188 191 201 206 204 220 219 193 179 209 220 211 207 216 233 239 219 185 169 157 156 158 163 167 163 164 169 177 177 177 185 182 184 188 188 191 198 192 190 202 214 218 228 232 234 239 245 246 251 257 264 270 281 294 285 285 279 273 267 262 252 249 245 240 234 237 234 229 221 218 219 228 238 253 250 229 228 237 236 237 235 229 228 228 230 231 231 232 235 237 241 245 250 264 302 347 365 358 315 296 283 279 280 287 288 297 304 308 315 324 300 302 304 295 336 325 292 259 238 229 230 230 229 231 230 229 229 233 235 246 252 254 246 246 247 246 255 253 264 281 288 291 305 303 310 311 307 305 323 356 323 328 345 359 373 426 388 317 343 282 228 203 193 180 174 168 164 167 166 162 158 146 150 141 134 137 139 128 127 141 155 155 183 244 328 384 378 158 41 27 15 13 22 4 4 3 3 3 -9999 -9999 -9999 6 7 6 6 15 29 15 -9999 5 -9999 -9999 -9999 -9999 18 7.0000004768371582031 98 125 31 45 2 -9999 -9999 -9999 -9999 -9999 -9999 -9999 -9999 -9999 -9999 -9999 -9999 -9999 -9999 -9999 -9999 -9999 -9999 -9999 -9999 -9999 -9999 -9999 -9999 -9999 -9999 -9999 -9999 -9999 -9999 -9999 -9999 -9999 -9999 -9999 -9999 -9999 -9999 -9999 -9999 -9999 -9999 -9999 -9999 -9999 -9999 -9999 -9999 -9999 -9999 -9999 -9999 -9999 -9999 -9999 -9999 -9999 -9999 -9999 -9999 -9999 -9999 -9999 -9999 -9999 -9999 -9999 -9999 -9999 -9999 -9999 -9999 -9999 -9999 -9999 -9999 -9999 -9999
189 187 181 180 169 162 161 164 168 166 172 181 188 199 199 191 172 163 158 154 158 165 166 171 175 179 187 196 201 211 222 233 233 232 215 211 223 241 251 236 238 240 228 227 238 216 208 204 204 206 210 218 229 225 229 238 246 256 260 224 207 197 195 196 199 205 204 205 211 215 220 227 246 263 273 246 216 211 202 197 206 215 201 192 186 181 179 186 184 186 197 194 192 177 202 205 200 207 218 232 230 214 188 168 156 155 166 166 171 171 171 168 168 170 171 175 175 178 180 182 184 186 187 189 195 201 209 217 221 226 225 227 233 237 245 257 278 281 285 294 291 279 269 263 256 260 263 263 254 244 230 237 233 226 221 217 216 225 245 228 220 229 233 228 231 229 225 227 226 228 229 230 234 237 239 242 250 256 257 292 330 358 338 298 284 280 279 278 279 289 298 298 302 318 319 309 323 327 326 356 349 309 267 242 234 232 232 233 234 235 238 242 250 245 249 255 258 248 249 253 253 262 266 266 287 293 296 309 318 329 339 323 318 324 340 323 326 338 359 367 391 391 368 340 290 236 215 199 184 179 176 165 159 162 161 155 148 138 138 132 126 129 125 125 127 135 151 179 202 270 333 413 259 73 34 13 6 6 6 6 7 5 2 9 5 -9999 6 5 14 13 7 26 36 15 17 9 -9999 -9999 -9999 -9999 8 156 112 67 26 -9999 -9999 -9999 -9999 -9999 -9999 -9999 -9999 -9999 -9999 -9999 -9999 -9999 -9999 -9999 -9999 -9999 -9999 -9999 -9999 -9999 -9999 -9999 -9999 -9999 -9999 -9999 -9999 -9999 -9999 -9999 -9999 -9999 -9999 -9999 -9999 -9999 -9999 -9999 -9999 -9999 -9999 -9999 -9999 -9999 -9999 -9999 -9999 -9999 -9999 -9999 -9999 -9999 -9999 -9999 -9999 -9999 -9999 -9999 -9999 -9999 -9999 -9999 -9999 -9999 -9999 -9999 -9999 -9999 -9999 -9999 -9999 -9999 -9999 -9999 -9999 -9999 -9999 -9999
186 183 176 179 178 172 167 164 164 165 165 168 178 185 201 197 177 171 159 155 154 160 163 166 169 176 184 191 196 201 210 222 223 220 208 213 233 245 246 232 227 231 227 218 229 214 204 201 201 205 205 211 219 221 237 248 264 268 259 218 196 190 191 193 199 205 196 198 203 212 222 239 246 257 259 253 232 203 198 189 195 207 204 200 191 185 177 177 176 177 199 183 172 171 191 190 190 197 209 225 226 196 187 166 153 158 166 171 181 182 185 181 176 178 182 179 180 182 185 189 188 188 191 194 194 197 204 206 208 211 215 222 226 233 242 256 274 273 277 279 286 285 276 276 269 277 275 270 254 237 227 234 245 246 236 231 222 214 216 216 219 223 223 223 227 224 222 224 225 226 228 233 234 239 245 247 254 264 259 286 333 323 299 297 291 285 281 281 282 283 285 290 299 312 321 309 309 308 330 358 363 314 269 246 237 234 235 236 239 240 250 251 255 256 257 257 260 248 256 264 258 263 273 271 277 290 303 302 308 321 342 345 337 328 348 337 350 358 374 380 397 410 393 314 299 306 241 211 194 192 176 160 154 154 153 154 146 144 141 136 127 124 126 124 130 141 165 184 196 232 320 415 427 198 54 20 6 11 8 9 4 7 5 22 15 -9999 8 11 29 13 9 24 56 39 80 22 16 -9999 -9999 -9999 2 40 143 35 76 90 -9999 -9999 -9999 -9999 -9999 -9999 -9999 -9999 -9999 -9999 -9999 -9999 -9999 -9999 -9999 -9999 -9999 -9999 -9999 -9999 -9999 -9999 -9999 -9999 -9999 -9999 -9999 -9999 -9999 -9999 -9999 -9999 -9999 -9999 -9999 -9999 -9999 -9999 -9999 -9999 -9999 -9999 -9999 -9999 -9999 -9999 -9999 -9999 -9999 -9999 -9999 -9999 -9999 -9999 -9999 -9999 -9999 -9999 -9999 -9999 -9999 -9999 -9999 -9999 -9999 -9999 -9999 -9999 -9999 -9999 -9999 -9999 -9999 -9999 -9999 -9999 -9999 -9999
187 178 174 171 174 172 165 165 158 159 165 163 167 174 188 188 190 182 168 158 152 155 159 167 174 183 194 208 205 211 222 223 210 212 200 214 220 233 241 225 226 217 214 210 222 220 208 197 201 205 206 207 222 231 241 259 261 246 237 210 193 186 188 191 195 198 192 197 207 220 230 231 241 243 246 246 226 196 189 184 186 198 192 190 194 198 184 172 167 168 194 192 171 173 187 179 182 194 199 211 230 196 170 160 152 162 168 172 183 197 201 191 187 184 191 194 191 189 200 196 194 195 205 227 230 205 200 204 212 217 223 229 235 243 249 263 271 263 269 267 278 290 290 284 275 265 263 259 252 241 227 226 233 237 235 230 220 212 226 215 214 215 216 217 219 220 223 224 229 232 233 240 242 246 257 261 262 268 263 280 315 295 302 320 298 290 290 291 291 291 297 300 315 319 313 297 291 290 311 306 318 294 261 249 239 237 237 239 261 270 266 261 268 270 270 269 264 254 255 268 268 270 282 300 296 288 289 292 313 323 335 358 358 345 359 360 375 401 418 415 410 412 351 296 279 323 267 228 202 199 183 169 160 152 148 148 148 147 141 140 133 121 121 122 125 138 149 171 210 250 283 356 464 377 139 49 14 26 21 7 6 5 12 47 57 5 -9999 11 15 16 22 27 39 81 147 67 29 14 -9999 -9999 -9999 4 43 62 39 62 41 -9999 -9999 -9999 -9999 -9999 -9999 -9999 -9999 -9999 -9999 -9999 -9999 -9999 -9999 -9999 -9999 -9999 -9999 -9999 -9999 -9999 -9999 -9999 -9999 -9999 -9999 -9999 -9999 -9999 -9999 -9999 -9999 -9999 -9999 -9999 -9999 -9999 -9999 -9999 -9999 -9999 -9999 -9999 -9999 -9999 -9999 -9999 -9999 -9999 -9999 -9999 -9999 -9999 -9999 -9999 -9999 -9999 -9999 -9999 -9999 -9999 -9999 -9999 -9999 -9999 -9999 -9999 -9999 -9999 -9999 -9999 -9999 -9999 -9999 -9999 -9999 -9999
